# .PCD v0.7 - Point Cloud Data file format
VERSION 0.7
FIELDS x y z rgb
SIZE 4 4 4 4
TYPE F F F F
COUNT 1 1 1 1
WIDTH 1233
HEIGHT 1
VIEWPOINT 0 0 0 1 0 0 0
POINTS 1233
DATA ascii
1 0.29185152 0.012186098 2.3436058e-38
1 0.30889478 0.012005677 2.3436058e-38
1 0.33069971 0.0087083708 2.3436058e-38
1 0.35022733 0.0097702099 2.3436058e-38
1 0.37042823 0.011460251 2.3436058e-38
1 0.39041758 0.0089405775 2.3436058e-38
1 0.40970549 0.0094155734 2.3436058e-38
1 0.43165186 0.0079002911 2.3436058e-38
1 0.4492515 0.0085783536 2.3436058e-38
1 0.47133708 0.010911738 2.3436058e-38
1 0.48594868 0.011797428 2.3436058e-38
1 0.51035517 0.0095031811 2.3436058e-38
1 0.52984482 0.014347434 2.3436058e-38
1 0.54981089 0.007452216 2.3436058e-38
1 0.56986648 0.009352901 2.3436058e-38
1 0.5904488 0.0098915426 2.3436058e-38
1 0.61161053 0.010540894 2.3436058e-38
1 0.62717617 0.0094638309 2.3436058e-38
1 0.64924747 0.0087087154 2.3436058e-38
1 0.66702819 0.0089573069 2.3436058e-38
1 0.68540168 0.0093865991 2.3436058e-38
1 0.70873755 0.0092827622 2.3436058e-38
1 0.72950828 0.006975472 2.3436058e-38
1 0.7499851 0.009660244 2.3436058e-38
1 0.77052641 0.011945337 2.3436058e-38
1 0.78761065 0.009573142 2.3436058e-38
1 0.81228572 0.012917693 2.3436058e-38
1 0.83143711 0.0095887659 2.3436058e-38
1 0.84972298 0.01523447 2.3436058e-38
1 0.86584026 0.013353175 2.3436058e-38
1 0.88946342 0.0092831133 2.3436058e-38
1 0.91114193 0.011282338 2.3436058e-38
1 0.93271595 0.010529571 2.3436058e-38
1 0.95041865 0.0094511174 2.3436058e-38
1 0.96967393 0.010305065 2.3436058e-38
1 0.99087679 0.011062241 2.3436058e-38
1 -0.99134487 0.030903233 2.3436058e-38
1 -0.96760631 0.030812047 2.3436058e-38
1 -0.95188379 0.029362973 2.3436058e-38
1 -0.92737579 0.027612686 2.3436058e-38
1 -0.90914249 0.030464888 2.3436058e-38
1 -0.88765758 0.031216621 2.3436058e-38
1 -0.87099469 0.027764048 2.3436058e-38
1 -0.84824038 0.034693599 2.3436058e-38
1 -0.83126831 0.030219 2.3436058e-38
1 -0.81034249 0.026505038 2.3436058e-38
1 -0.79040134 0.029744506 2.3436058e-38
1 -0.76732367 0.029887801 2.3436058e-38
1 -0.74901515 0.030551767 2.3436058e-38
1 -0.73373979 0.029265214 2.3436058e-38
1 -0.70919418 0.031609647 2.3436058e-38
1 -0.69151592 0.029459096 2.3436058e-38
1 -0.66861415 0.033051968 2.3436058e-38
1 -0.65430152 0.028287411 2.3436058e-38
1 -0.63098115 0.030342253 2.3436058e-38
1 -0.60858166 0.030217785 2.3436058e-38
1 -0.594284 0.026897311 2.3436058e-38
1 -0.56855804 0.031332061 2.3436058e-38
1 -0.54931521 0.028528333 2.3436058e-38
1 -0.52856886 0.028094133 2.3436058e-38
1 -0.51300114 0.028315639 2.3436058e-38
1 -0.49060115 0.032917883 2.3436058e-38
1 -0.46631989 0.027601503 2.3436058e-38
1 -0.4459497 0.02848196 2.3436058e-38
1 -0.43341768 0.026400654 2.3436058e-38
1 -0.41113418 0.028997393 2.3436058e-38
1 -0.38872737 0.028439373 2.3436058e-38
1 -0.36784637 0.030242801 2.3436058e-38
1 -0.35101163 0.032954752 2.3436058e-38
1 -0.3295258 0.030663747 2.3436058e-38
1 -0.3103402 0.030374739 2.3436058e-38
1 -0.29116559 0.031377196 2.3436058e-38
1 -0.27006871 0.032692313 2.3436058e-38
1 -0.24879383 0.031334475 2.3436058e-38
1 -0.23133856 0.03043551 2.3436058e-38
1 -0.20961952 0.030182887 2.3436058e-38
1 -0.19040298 0.028223125 2.3436058e-38
1 -0.16889991 0.03208812 2.3436058e-38
1 -0.14857133 0.03047053 2.3436058e-38
1 -0.12847596 0.032987595 2.3436058e-38
1 -0.11344771 0.029770246 2.3436058e-38
1 -0.089854553 0.030137882 2.3436058e-38
1 -0.070415542 0.030970315 2.3436058e-38
1 -0.051168919 0.032359377 2.3436058e-38
1 -0.026042368 0.027310563 2.3436058e-38
1 -0.010541376 0.028968589 2.3436058e-38
1 0.011153662 0.031649552 2.3436058e-38
1 0.031468261 0.031122079 2.3436058e-38
1 0.051311046 0.030320674 2.3436058e-38
1 0.069855317 0.02793593 2.3436058e-38
1 0.091993891 0.02829532 2.3436058e-38
1 0.11127543 0.031390607 2.3436058e-38
1 0.12961665 0.031313363 2.3436058e-38
1 0.14639764 0.028384989 2.3436058e-38
1 0.16877981 0.033401404 2.3436058e-38
1 0.19126013 0.031023661 2.3436058e-38
1 0.20944576 0.030720031 2.3436058e-38
1 0.22897345 0.02846393 2.3436058e-38
1 0.24994941 0.030807495 2.3436058e-38
1 0.26846465 0.027673587 2.3436058e-38
1 0.28826353 0.026705062 2.3436058e-38
1 0.30804265 0.032445949 2.3436058e-38
1 0.32880899 0.029206658 2.3436058e-38
1 0.34924239 0.031057904 2.3436058e-38
1 0.36794388 0.025461555 2.3436058e-38
1 0.38560897 0.028788615 2.3436058e-38
1 0.40980148 0.031908154 2.3436058e-38
1 0.42748624 0.030369092 2.3436058e-38
1 0.45140767 0.02943784 2.3436058e-38
1 0.47128731 0.028910279 2.3436058e-38
1 0.49165389 0.027674286 2.3436058e-38
1 0.5099746 0.030102905 2.3436058e-38
1 0.52813834 0.031055307 2.3436058e-38
1 0.55373323 0.033043589 2.3436058e-38
1 0.56943476 0.028108001 2.3436058e-38
1 0.58899486 0.030940533 2.3436058e-38
1 0.61050856 0.032344211 2.3436058e-38
1 0.6303975 0.032416053 2.3436058e-38
1 0.64857805 0.027998209 2.3436058e-38
1 0.66708624 0.034448318 2.3436058e-38
1 0.6887579 0.030677931 2.3436058e-38
1 0.70917988 0.028345745 2.3436058e-38
1 0.73094034 0.028820332 2.3436058e-38
1 0.75187087 0.028279714 2.3436058e-38
1 0.76890194 0.030141449 2.3436058e-38
1 0.79232478 0.034304619 2.3436058e-38
1 0.80607194 0.029015338 2.3436058e-38
1 0.83065522 0.029391289 2.3436058e-38
1 0.85062855 0.029906671 2.3436058e-38
1 0.87095666 0.033318147 2.3436058e-38
1 0.88748747 0.030993832 2.3436058e-38
1 0.91068459 0.027812438 2.3436058e-38
1 0.93152678 0.030205691 2.3436058e-38
1 0.95141399 0.029274855 2.3436058e-38
1 0.97061574 0.031155428 2.3436058e-38
1 0.99126369 0.027480073 2.3436058e-38
1 -0.98775399 0.051323049 2.3436058e-38
1 -0.96917361 0.050745536 2.3436058e-38
1 -0.94982433 0.049208786 2.3436058e-38
1 -0.93188471 0.052268863 2.3436058e-38
1 -0.90834677 0.04985676 2.3436058e-38
1 -0.88954532 0.050036736 2.3436058e-38
1 -0.869551 0.047268536 2.3436058e-38
1 -0.846035 0.051522255 2.3436058e-38
1 -0.82877779 0.049943846 2.3436058e-38
1 -0.80756778 0.051799059 2.3436058e-38
1 -0.78664589 0.05743742 2.3436058e-38
1 -0.76836228 0.049207963 2.3436058e-38
1 -0.74862874 0.051571131 2.3436058e-38
1 -0.7287457 0.049234267 2.3436058e-38
1 -0.71018791 0.050566066 2.3436058e-38
1 -0.68899739 0.051141411 2.3436058e-38
1 -0.66688347 0.052624624 2.3436058e-38
1 -0.64825892 0.046289563 2.3436058e-38
1 -0.63090193 0.047851562 2.3436058e-38
1 -0.61155701 0.050639059 2.3436058e-38
1 -0.58916909 0.054313779 2.3436058e-38
1 -0.57081223 0.049956389 2.3436058e-38
1 -0.54891843 0.051037993 2.3436058e-38
1 -0.53082299 0.053262115 2.3436058e-38
1 -0.5094862 0.050600901 2.3436058e-38
1 -0.49207538 0.047729705 2.3436058e-38
1 -0.47281307 0.052178502 2.3436058e-38
1 -0.45403805 0.048875522 2.3436058e-38
1 -0.4280279 0.049646165 2.3436058e-38
1 -0.4113549 0.048883624 2.3436058e-38
1 -0.38979033 0.052529845 2.3436058e-38
1 -0.37077194 0.049462855 2.3436058e-38
1 -0.3515234 0.051540792 2.3436058e-38
1 -0.33066073 0.050817396 2.3436058e-38
1 -0.31145066 0.052983999 2.3436058e-38
1 -0.29190218 0.051394343 2.3436058e-38
1 -0.26671702 0.045939762 2.3436058e-38
1 -0.24882822 0.050155472 2.3436058e-38
1 -0.22793178 0.051159382 2.3436058e-38
1 -0.2101528 0.052240729 2.3436058e-38
1 -0.19231203 0.045971554 2.3436058e-38
1 -0.17024398 0.052481055 2.3436058e-38
1 -0.15130687 0.04983902 2.3436058e-38
1 -0.12963113 0.047821827 2.3436058e-38
1 -0.10973726 0.053272251 2.3436058e-38
1 -0.087277114 0.048534691 2.3436058e-38
1 -0.066777825 0.04896152 2.3436058e-38
1 -0.05002043 0.048814192 2.3436058e-38
1 -0.029694349 0.051749408 2.3436058e-38
1 -0.010192513 0.052927554 2.3436058e-38
1 0.0091550173 0.050631013 2.3436058e-38
1 0.028355546 0.050061967 2.3436058e-38
1 0.051587582 0.051440716 2.3436058e-38
1 0.069862306 0.04747143 2.3436058e-38
1 0.09013997 0.049529929 2.3436058e-38
1 0.11290377 0.052640855 2.3436058e-38
1 0.12829208 0.050156329 2.3436058e-38
1 0.14884318 0.04997598 2.3436058e-38
1 0.16869646 0.051896412 2.3436058e-38
1 0.19006357 0.050896328 2.3436058e-38
1 0.20992079 0.04987831 2.3436058e-38
1 0.2294178 0.051536165 2.3436058e-38
1 0.25122088 0.048947152 2.3436058e-38
1 0.26796779 0.048201643 2.3436058e-38
1 0.28502691 0.052980151 2.3436058e-38
1 0.31149429 0.051035646 2.3436058e-38
1 0.32962677 0.051109474 2.3436058e-38
1 0.34801379 0.051897738 2.3436058e-38
1 0.37300843 0.054142319 2.3436058e-38
1 0.39218283 0.048312031 2.3436058e-38
1 0.41363877 0.053391278 2.3436058e-38
1 0.43061951 0.051035624 2.3436058e-38
1 0.44786185 0.047017276 2.3436058e-38
1 0.47400239 0.051182274 2.3436058e-38
1 0.48799959 0.047720432 2.3436058e-38
1 0.50940681 0.054373346 2.3436058e-38
1 0.52911353 0.051129263 2.3436058e-38
1 0.54854608 0.048886836 2.3436058e-38
1 0.57027215 0.044469833 2.3436058e-38
1 0.59045684 0.047859669 2.3436058e-38
1 0.61072469 0.051799342 2.3436058e-38
1 0.63522714 0.054757405 2.3436058e-38
1 0.64847106 0.050642386 2.3436058e-38
1 0.67386818 0.051130932 2.3436058e-38
1 0.69208491 0.050401077 2.3436058e-38
1 0.71207303 0.051892996 2.3436058e-38
1 0.73178631 0.047462106 2.3436058e-38
1 0.75046122 0.049447682 2.3436058e-38
1 0.76908994 0.048053045 2.3436058e-38
1 0.7862857 0.051640406 2.3436058e-38
1 0.81188583 0.049625441 2.3436058e-38
1 0.82869881 0.050368682 2.3436058e-38
1 0.84875619 0.050102234 2.3436058e-38
1 0.86931354 0.048694067 2.3436058e-38
1 0.88865107 0.047594707 2.3436058e-38
1 0.90875524 0.049729254 2.3436058e-38
1 0.9308815 0.05150691 2.3436058e-38
1 0.94690913 0.049302287 2.3436058e-38
1 0.96805423 0.049037352 2.3436058e-38
1 0.98902166 0.050685536 2.3436058e-38
1 -0.99251318 0.069963239 2.3436058e-38
1 -0.97093725 0.070593879 2.3436058e-38
1 -0.94412601 0.069801062 2.3436058e-38
1 -0.92957079 0.067606486 2.3436058e-38
1 -0.91142464 0.071023375 2.3436058e-38
1 -0.89402223 0.069739185 2.3436058e-38
1 -0.86950469 0.068995848 2.3436058e-38
1 -0.85445291 0.066868782 2.3436058e-38
1 -0.83348864 0.069197848 2.3436058e-38
1 -0.81107843 0.074288189 2.3436058e-38
1 -0.79199386 0.067881852 2.3436058e-38
1 -0.76804048 0.068826713 2.3436058e-38
1 -0.7514708 0.073305689 2.3436058e-38
1 -0.72759265 0.071154259 2.3436058e-38
1 -0.71125793 0.069525756 2.3436058e-38
1 -0.68709064 0.072822809 2.3436058e-38
1 -0.67274415 0.066531345 2.3436058e-38
1 -0.65056813 0.068873167 2.3436058e-38
1 -0.62944621 0.06965223 2.3436058e-38
1 -0.61105859 0.068600178 2.3436058e-38
1 -0.59094352 0.068702817 2.3436058e-38
1 -0.56744522 0.06757021 2.3436058e-38
1 -0.54994619 0.071116239 2.3436058e-38
1 -0.53032577 0.070669875 2.3436058e-38
1 -0.50957155 0.067889214 2.3436058e-38
1 -0.49103945 0.06720984 2.3436058e-38
1 -0.46895054 0.070342898 2.3436058e-38
1 -0.45035982 0.072501346 2.3436058e-38
1 -0.43243548 0.070322752 2.3436058e-38
1 -0.41310808 0.070879556 2.3436058e-38
1 -0.38887629 0.069965124 2.3436058e-38
1 -0.36679548 0.068313569 2.3436058e-38
1 -0.35066035 0.070931695 2.3436058e-38
1 -0.32608998 0.068738662 2.3436058e-38
1 -0.3130824 0.066976376 2.3436058e-38
1 -0.29186621 0.070663966 2.3436058e-38
1 -0.26958746 0.066992104 2.3436058e-38
1 -0.25005129 0.072227523 2.3436058e-38
1 -0.23296504 0.069740951 2.3436058e-38
1 -0.20866343 0.071690604 2.3436058e-38
1 -0.18903704 0.075323872 2.3436058e-38
1 -0.1702015 0.068204068 2.3436058e-38
1 -0.1507889 0.068811774 2.3436058e-38
1 -0.13304758 0.073635675 2.3436058e-38
1 -0.11188201 0.069126949 2.3436058e-38
1 -0.092012249 0.069775105 2.3436058e-38
1 -0.070788532 0.070105076 2.3436058e-38
1 -0.047289848 0.07158041 2.3436058e-38
1 -0.030313492 0.069042049 2.3436058e-38
1 -0.010731591 0.068152748 2.3436058e-38
1 0.0088977814 0.070245951 2.3436058e-38
1 0.032528445 0.071943156 2.3436058e-38
1 0.051094003 0.072961278 2.3436058e-38
1 0.069086649 0.071543701 2.3436058e-38
1 0.090253353 0.069668293 2.3436058e-38
1 0.10786956 0.070348158 2.3436058e-38
1 0.13027899 0.068672225 2.3436058e-38
1 0.14895956 0.070146084 2.3436058e-38
1 0.16980231 0.071798801 2.3436058e-38
1 0.19001061 0.07219702 2.3436058e-38
1 0.21022289 0.070041873 2.3436058e-38
1 0.23114792 0.069552518 2.3436058e-38
1 0.2510277 0.075240791 2.3436058e-38
1 0.27217373 0.069993094 2.3436058e-38
1 0.288573 0.068064161 2.3436058e-38
1 0.3093569 0.07118886 2.3436058e-38
1 0.33181736 0.068260536 2.3436058e-38
1 0.3482458 0.071049057 2.3436058e-38
1 0.36795819 0.071004093 2.3436058e-38
1 0.39500087 0.068809986 2.3436058e-38
1 0.40955138 0.067979291 2.3436058e-38
1 0.4303326 0.070850104 2.3436058e-38
1 0.45173112 0.069642685 2.3436058e-38
1 0.46981463 0.068625666 2.3436058e-38
1 0.48974454 0.068781734 2.3436058e-38
1 0.51619101 0.06785886 2.3436058e-38
1 0.52949363 0.070832431 2.3436058e-38
1 0.55144459 0.066947937 2.3436058e-38
1 0.57258445 0.072115824 2.3436058e-38
1 0.5897463 0.071350843 2.3436058e-38
1 0.60947877 0.068795562 2.3436058e-38
1 0.62982339 0.068506323 2.3436058e-38
1 0.6485396 0.072648168 2.3436058e-38
1 0.66958404 0.072622709 2.3436058e-38
1 0.69142389 0.071456075 2.3436058e-38
1 0.7108832 0.069838136 2.3436058e-38
1 0.73069936 0.06874381 2.3436058e-38
1 0.75060552 0.073199749 2.3436058e-38
1 0.76786005 0.070243433 2.3436058e-38
1 0.79092687 0.070386805 2.3436058e-38
1 0.8069731 0.067830659 2.3436058e-38
1 0.82142973 0.065637589 2.3436058e-38
1 0.84959823 0.07030113 2.3436058e-38
1 0.8731271 0.069005489 2.3436058e-38
1 0.89295632 0.070843183 2.3436058e-38
1 0.90915716 0.070038185 2.3436058e-38
1 0.93036264 0.070304431 2.3436058e-38
1 0.95307606 0.07205905 2.3436058e-38
1 0.96769035 0.068979546 2.3436058e-38
1 0.99019665 0.069329232 2.3436058e-38
1 -0.98992473 0.087087899 2.3436058e-38
1 -0.96779346 0.092134871 2.3436058e-38
1 -0.95206028 0.090191416 2.3436058e-38
1 -0.9268083 0.090936348 2.3436058e-38
1 -0.91311646 0.091670275 2.3436058e-38
1 -0.89098209 0.089571051 2.3436058e-38
1 -0.87351155 0.090419568 2.3436058e-38
1 -0.84965527 0.091855466 2.3436058e-38
1 -0.82946384 0.088377878 2.3436058e-38
1 -0.80798948 0.089012548 2.3436058e-38
1 -0.78611219 0.087616496 2.3436058e-38
1 -0.77022171 0.086720616 2.3436058e-38
1 -0.74774188 0.091237545 2.3436058e-38
1 -0.73199743 0.086533867 2.3436058e-38
1 -0.70682979 0.092698812 2.3436058e-38
1 -0.68968362 0.09094996 2.3436058e-38
1 -0.67123312 0.092002325 2.3436058e-38
1 -0.64753449 0.090065099 2.3436058e-38
1 -0.62946731 0.088030078 2.3436058e-38
1 -0.60824776 0.088583946 2.3436058e-38
1 -0.59092778 0.092873506 2.3436058e-38
1 -0.57048553 0.088955231 2.3436058e-38
1 -0.54906988 0.089107275 2.3436058e-38
1 -0.5298779 0.087715149 2.3436058e-38
1 -0.50999761 0.091215581 2.3436058e-38
1 -0.48749122 0.091051795 2.3436058e-38
1 -0.47184381 0.091884471 2.3436058e-38
1 -0.44744897 0.08817964 2.3436058e-38
1 -0.42834377 0.089864887 2.3436058e-38
1 -0.41340289 0.089003131 2.3436058e-38
1 -0.39135715 0.091214657 2.3436058e-38
1 -0.37148347 0.088828564 2.3436058e-38
1 -0.35130969 0.091787174 2.3436058e-38
1 -0.33200681 0.092304237 2.3436058e-38
1 -0.30936861 0.085825019 2.3436058e-38
1 -0.29031786 0.089572698 2.3436058e-38
1 -0.26561868 0.08863388 2.3436058e-38
1 -0.24330759 0.098082229 2.3436058e-38
1 -0.22915946 0.087860681 2.3436058e-38
1 -0.20821671 0.091333121 2.3436058e-38
1 -0.18844549 0.087815069 2.3436058e-38
1 -0.17221189 0.089045823 2.3436058e-38
1 -0.14878787 0.090917587 2.3436058e-38
1 -0.12841909 0.088219382 2.3436058e-38
1 -0.11090589 0.091272354 2.3436058e-38
1 -0.091045953 0.087865546 2.3436058e-38
1 -0.07154122 0.089258738 2.3436058e-38
1 -0.047071461 0.08796788 2.3436058e-38
1 -0.032005694 0.09131217 2.3436058e-38
1 -0.013102668 0.090763912 2.3436058e-38
1 0.01188302 0.087345362 2.3436058e-38
1 0.027623814 0.092065573 2.3436058e-38
1 0.046778787 0.087583385 2.3436058e-38
1 0.072562844 0.089620486 2.3436058e-38
1 0.088510461 0.091474533 2.3436058e-38
1 0.10850449 0.090857267 2.3436058e-38
1 0.1293146 0.090380408 2.3436058e-38
1 0.15099922 0.092359617 2.3436058e-38
1 0.16932079 0.089056373 2.3436058e-38
1 0.19163875 0.089624763 2.3436058e-38
1 0.21194717 0.08718089 2.3436058e-38
1 0.23345859 0.08750657 2.3436058e-38
1 0.24899372 0.092073366 2.3436058e-38
1 0.27100119 0.090266198 2.3436058e-38
1 0.28669745 0.088370681 2.3436058e-38
1 0.3111428 0.090164348 2.3436058e-38
1 0.33473575 0.089413427 2.3436058e-38
1 0.35127604 0.088625275 2.3436058e-38
1 0.37096196 0.090626575 2.3436058e-38
1 0.38865954 0.088658191 2.3436058e-38
1 0.40924788 0.090679087 2.3436058e-38
1 0.42856488 0.094639778 2.3436058e-38
1 0.45197451 0.089286327 2.3436058e-38
1 0.4703711 0.090764381 2.3436058e-38
1 0.49306989 0.090457715 2.3436058e-38
1 0.50811094 0.091518283 2.3436058e-38
1 0.52857685 0.089470744 2.3436058e-38
1 0.55168569 0.087108932 2.3436058e-38
1 0.57325315 0.090579703 2.3436058e-38
1 0.5900659 0.091303401 2.3436058e-38
1 0.6104241 0.091261312 2.3436058e-38
1 0.63107276 0.090728663 2.3436058e-38
1 0.64944607 0.088921688 2.3436058e-38
1 0.67221755 0.090235673 2.3436058e-38
1 0.68942386 0.090187252 2.3436058e-38
1 0.70911503 0.088905208 2.3436058e-38
1 0.72777253 0.092210189 2.3436058e-38
1 0.74987537 0.089460984 2.3436058e-38
1 0.7688995 0.089942202 2.3436058e-38
1 0.79021442 0.090663038 2.3436058e-38
1 0.81303239 0.093447387 2.3436058e-38
1 0.82900763 0.089828014 2.3436058e-38
1 0.84819937 0.0878582 2.3436058e-38
1 0.86888677 0.089035414 2.3436058e-38
1 0.88932836 0.089724109 2.3436058e-38
1 0.91282737 0.088853702 2.3436058e-38
1 0.92853212 0.088531613 2.3436058e-38
1 0.94947386 0.091582984 2.3436058e-38
1 0.97089851 0.087531015 2.3436058e-38
1 0.98675764 0.088620491 2.3436058e-38
1 -0.98895854 0.10784835 2.3436058e-38
1 -0.970586 0.11123234 2.3436058e-38
1 -0.95102769 0.11114919 2.3436058e-38
1 -0.92927343 0.10923248 2.3436058e-38
1 -0.90778476 0.10873302 2.3436058e-38
1 -0.89218843 0.10899991 2.3436058e-38
1 -0.87037927 0.10521072 2.3436058e-38
1 -0.85186267 0.10997503 2.3436058e-38
1 -0.82949764 0.11028069 2.3436058e-38
1 -0.81060052 0.11103228 2.3436058e-38
1 -0.79100198 0.10969395 2.3436058e-38
1 -0.76882088 0.11001854 2.3436058e-38
1 -0.75060433 0.10782978 2.3436058e-38
1 -0.73131478 0.11186039 2.3436058e-38
1 -0.70942813 0.10783572 2.3436058e-38
1 -0.69253349 0.11103093 2.3436058e-38
1 -0.66972816 0.11118412 2.3436058e-38
1 -0.65062791 0.10997412 2.3436058e-38
1 -0.63210171 0.10789476 2.3436058e-38
1 -0.61412179 0.11153062 2.3436058e-38
1 -0.59198076 0.11093293 2.3436058e-38
1 -0.57150596 0.11038647 2.3436058e-38
1 -0.55041593 0.10970918 2.3436058e-38
1 -0.52764326 0.10673952 2.3436058e-38
1 -0.51013869 0.11103263 2.3436058e-38
1 -0.4849306 0.1084763 2.3436058e-38
1 -0.468458 0.10882803 2.3436058e-38
1 -0.4480544 0.11142182 2.3436058e-38
1 -0.4325071 0.11031651 2.3436058e-38
1 -0.40700263 0.11537521 2.3436058e-38
1 -0.39148262 0.10867961 2.3436058e-38
1 -0.37021503 0.11254673 2.3436058e-38
1 -0.35172251 0.1087691 2.3436058e-38
1 -0.32808009 0.11095105 2.3436058e-38
1 -0.30991733 0.11096376 2.3436058e-38
1 -0.29027787 0.11079607 2.3436058e-38
1 -0.26933733 0.11176848 2.3436058e-38
1 -0.25172675 0.10722077 2.3436058e-38
1 -0.23132297 0.10964913 2.3436058e-38
1 -0.20922413 0.11080623 2.3436058e-38
1 -0.19051594 0.11048263 2.3436058e-38
1 -0.16852286 0.10945407 2.3436058e-38
1 -0.1512192 0.10938415 2.3436058e-38
1 -0.13105303 0.1099984 2.3436058e-38
1 -0.10855484 0.1095679 2.3436058e-38
1 -0.089450203 0.11174011 2.3436058e-38
1 -0.069378935 0.1074547 2.3436058e-38
1 -0.052300155 0.11009598 2.3436058e-38
1 -0.03421047 0.11246909 2.3436058e-38
1 -0.012599803 0.1102912 2.3436058e-38
1 0.0086851493 0.11176363 2.3436058e-38
1 0.029993938 0.10952114 2.3436058e-38
1 0.051787563 0.10624776 2.3436058e-38
1 0.072420157 0.11163826 2.3436058e-38
1 0.088550188 0.11079931 2.3436058e-38
1 0.10719144 0.11170986 2.3436058e-38
1 0.12934478 0.10913907 2.3436058e-38
1 0.15204287 0.10832686 2.3436058e-38
1 0.16866647 0.10918736 2.3436058e-38
1 0.18911855 0.10974482 2.3436058e-38
1 0.20968646 0.10913235 2.3436058e-38
1 0.22748241 0.11245112 2.3436058e-38
1 0.24602023 0.11221252 2.3436058e-38
1 0.26550692 0.10775852 2.3436058e-38
1 0.2899161 0.11142251 2.3436058e-38
1 0.30776495 0.11437124 2.3436058e-38
1 0.3312602 0.11117869 2.3436058e-38
1 0.34963208 0.1097147 2.3436058e-38
1 0.37102023 0.10885372 2.3436058e-38
1 0.38812086 0.10809735 2.3436058e-38
1 0.41308603 0.10891303 2.3436058e-38
1 0.43211752 0.10829464 2.3436058e-38
1 0.44970623 0.10800171 2.3436058e-38
1 0.46868366 0.11034966 2.3436058e-38
1 0.48604748 0.11132256 2.3436058e-38
1 0.51337862 0.10980947 2.3436058e-38
1 0.53074759 0.11122782 2.3436058e-38
1 0.5487749 0.11142644 2.3436058e-38
1 0.57236785 0.10755575 2.3436058e-38
1 0.58846253 0.10703667 2.3436058e-38
1 0.60891515 0.11380081 2.3436058e-38
1 0.63192534 0.10877638 2.3436058e-38
1 0.65356654 0.11188402 2.3436058e-38
1 0.67092347 0.11393569 2.3436058e-38
1 0.69138122 0.11012787 2.3436058e-38
1 0.70937228 0.11060367 2.3436058e-38
1 0.72585154 0.10983753 2.3436058e-38
1 0.75184208 0.11411921 2.3436058e-38
1 0.77057594 0.1122139 2.3436058e-38
1 0.79226679 0.11128468 2.3436058e-38
1 0.80994672 0.1108975 2.3436058e-38
1 0.83262855 0.11174554 2.3436058e-38
1 0.84813827 0.11352485 2.3436058e-38
1 0.87051404 0.11254984 2.3436058e-38
1 0.88648802 0.11199332 2.3436058e-38
1 0.90976846 0.10911483 2.3436058e-38
1 0.92960274 0.11136686 2.3436058e-38
1 0.95189905 0.11352666 2.3436058e-38
1 0.97209716 0.10924592 2.3436058e-38
1 0.98787564 0.10709199 2.3436058e-38
1 -0.99132419 0.1309585 2.3436058e-38
1 -0.96600103 0.12916715 2.3436058e-38
1 -0.95225072 0.12915733 2.3436058e-38
1 -0.9296962 0.12849733 2.3436058e-38
1 -0.90928775 0.12754542 2.3436058e-38
1 -0.88695669 0.13245885 2.3436058e-38
1 -0.87044597 0.13070896 2.3436058e-38
1 -0.85322207 0.12905855 2.3436058e-38
1 -0.83013916 0.13213424 2.3436058e-38
1 -0.81320685 0.12969653 2.3436058e-38
1 -0.78762579 0.13139974 2.3436058e-38
1 -0.76642245 0.1303584 2.3436058e-38
1 -0.75152141 0.12833543 2.3436058e-38
1 -0.73264909 0.13542581 2.3436058e-38
1 -0.70834249 0.12734739 2.3436058e-38
1 -0.69171947 0.13158256 2.3436058e-38
1 -0.67032719 0.13060059 2.3436058e-38
1 -0.64598417 0.12809436 2.3436058e-38
1 -0.63135219 0.12970953 2.3436058e-38
1 -0.60761803 0.13163958 2.3436058e-38
1 -0.58999157 0.13087313 2.3436058e-38
1 -0.57107282 0.13056454 2.3436058e-38
1 -0.54933548 0.1311574 2.3436058e-38
1 -0.52937919 0.12954114 2.3436058e-38
1 -0.51312423 0.13041358 2.3436058e-38
1 -0.48962581 0.13137411 2.3436058e-38
1 -0.46987936 0.13160549 2.3436058e-38
1 -0.45007887 0.13009174 2.3436058e-38
1 -0.42569256 0.12958995 2.3436058e-38
1 -0.41051638 0.13248417 2.3436058e-38
1 -0.38986641 0.1263501 2.3436058e-38
1 -0.37213621 0.12716822 2.3436058e-38
1 -0.34820759 0.13061725 2.3436058e-38
1 -0.32908827 0.12876724 2.3436058e-38
1 -0.30747411 0.13115641 2.3436058e-38
1 -0.28879616 0.12824859 2.3436058e-38
1 -0.27227092 0.12952815 2.3436058e-38
1 -0.24878332 0.13248329 2.3436058e-38
1 -0.23205957 0.13200681 2.3436058e-38
1 -0.20831357 0.13043399 2.3436058e-38
1 -0.19027272 0.13058147 2.3436058e-38
1 -0.16989891 0.12863688 2.3436058e-38
1 -0.15051293 0.12793717 2.3436058e-38
1 -0.13177502 0.13013136 2.3436058e-38
1 -0.10708805 0.12641886 2.3436058e-38
1 -0.090456724 0.12738743 2.3436058e-38
1 -0.067204922 0.12832983 2.3436058e-38
1 -0.048375219 0.13263044 2.3436058e-38
1 -0.028604707 0.12866108 2.3436058e-38
1 -0.0088539654 0.12791295 2.3436058e-38
1 0.012586799 0.13000646 2.3436058e-38
1 0.029040813 0.13099363 2.3436058e-38
1 0.05152595 0.12773395 2.3436058e-38
1 0.069368683 0.13152821 2.3436058e-38
1 0.085403621 0.1295137 2.3436058e-38
1 0.10944828 0.12821929 2.3436058e-38
1 0.12857045 0.12983094 2.3436058e-38
1 0.15077968 0.12897177 2.3436058e-38
1 0.17022192 0.12960005 2.3436058e-38
1 0.19060707 0.12433378 2.3436058e-38
1 0.21205293 0.12634873 2.3436058e-38
1 0.22861397 0.13234882 2.3436058e-38
1 0.24751419 0.12908787 2.3436058e-38
1 0.26928297 0.13206349 2.3436058e-38
1 0.29497403 0.12862015 2.3436058e-38
1 0.3098349 0.12876184 2.3436058e-38
1 0.33069891 0.12821114 2.3436058e-38
1 0.35074207 0.12867032 2.3436058e-38
1 0.3684395 0.12947497 2.3436058e-38
1 0.39154175 0.12600926 2.3436058e-38
1 0.41840625 0.13340616 2.3436058e-38
1 0.43059602 0.1275049 2.3436058e-38
1 0.45050216 0.12800321 2.3436058e-38
1 0.46930635 0.1297102 2.3436058e-38
1 0.48580843 0.12900543 2.3436058e-38
1 0.5087896 0.12890109 2.3436058e-38
1 0.53011626 0.12873718 2.3436058e-38
1 0.55136627 0.13035107 2.3436058e-38
1 0.56670833 0.12741685 2.3436058e-38
1 0.58616138 0.12725902 2.3436058e-38
1 0.60935539 0.13117568 2.3436058e-38
1 0.62873471 0.13266706 2.3436058e-38
1 0.64922428 0.12937927 2.3436058e-38
1 0.66995043 0.13196534 2.3436058e-38
1 0.68716168 0.12854123 2.3436058e-38
1 0.70782918 0.13151431 2.3436058e-38
1 0.72841775 0.13241281 2.3436058e-38
1 0.75087374 0.1310761 2.3436058e-38
1 0.76987863 0.12941752 2.3436058e-38
1 0.78831184 0.13037118 2.3436058e-38
1 0.80683339 0.13023983 2.3436058e-38
1 0.83129185 0.1306808 2.3436058e-38
1 0.85123241 0.12821442 2.3436058e-38
1 0.87207985 0.13159561 2.3436058e-38
1 0.88898218 0.1291889 2.3436058e-38
1 0.91074312 0.12824456 2.3436058e-38
1 0.92856139 0.13302794 2.3436058e-38
1 0.94912779 0.12834902 2.3436058e-38
1 0.97235936 0.12898023 2.3436058e-38
1 0.99267697 0.1283828 2.3436058e-38
1 -0.99044675 0.14932448 2.3436058e-38
1 -0.97086376 0.1502244 2.3436058e-38
1 -0.94960815 0.14988984 2.3436058e-38
1 -0.93043244 0.15033013 2.3436058e-38
1 -0.91420549 0.14709358 2.3436058e-38
1 -0.88750672 0.15216462 2.3436058e-38
1 -0.8652792 0.15302673 2.3436058e-38
1 -0.84998447 0.15231948 2.3436058e-38
1 -0.82903045 0.1502562 2.3436058e-38
1 -0.80789971 0.14789215 2.3436058e-38
1 -0.78603125 0.15120429 2.3436058e-38
1 -0.76630145 0.15170527 2.3436058e-38
1 -0.75107849 0.15101033 2.3436058e-38
1 -0.72724575 0.14607354 2.3436058e-38
1 -0.70879978 0.15024997 2.3436058e-38
1 -0.68994904 0.15093666 2.3436058e-38
1 -0.67118216 0.15366901 2.3436058e-38
1 -0.65014577 0.14895318 2.3436058e-38
1 -0.62772089 0.14980708 2.3436058e-38
1 -0.6106016 0.14877987 2.3436058e-38
1 -0.5889082 0.15079081 2.3436058e-38
1 -0.56890857 0.15134878 2.3436058e-38
1 -0.5481661 0.14893436 2.3436058e-38
1 -0.52815217 0.1467441 2.3436058e-38
1 -0.50641918 0.14970477 2.3436058e-38
1 -0.48998028 0.14936404 2.3436058e-38
1 -0.46949887 0.15107986 2.3436058e-38
1 -0.45008951 0.15179439 2.3436058e-38
1 -0.43231493 0.15082365 2.3436058e-38
1 -0.41170186 0.14829259 2.3436058e-38
1 -0.38932768 0.14987388 2.3436058e-38
1 -0.36863881 0.14878523 2.3436058e-38
1 -0.35186705 0.14927284 2.3436058e-38
1 -0.33026123 0.15343039 2.3436058e-38
1 -0.31023908 0.15006265 2.3436058e-38
1 -0.28964886 0.15098493 2.3436058e-38
1 -0.27365801 0.14778894 2.3436058e-38
1 -0.2510131 0.14992309 2.3436058e-38
1 -0.23215416 0.15125005 2.3436058e-38
1 -0.21206066 0.14822574 2.3436058e-38
1 -0.19010215 0.14731112 2.3436058e-38
1 -0.17041023 0.14958556 2.3436058e-38
1 -0.15105903 0.15072855 2.3436058e-38
1 -0.12961605 0.14824741 2.3436058e-38
1 -0.11004646 0.15108924 2.3436058e-38
1 -0.090367734 0.15305066 2.3436058e-38
1 -0.068978176 0.15074001 2.3436058e-38
1 -0.052369382 0.14817306 2.3436058e-38
1 -0.029568642 0.15068834 2.3436058e-38
1 -0.0092981132 0.14927547 2.3436058e-38
1 0.011140168 0.14906162 2.3436058e-38
1 0.029305935 0.15231936 2.3436058e-38
1 0.04874881 0.15338294 2.3436058e-38
1 0.070648789 0.15096653 2.3436058e-38
1 0.089331485 0.15146904 2.3436058e-38
1 0.10841948 0.15062636 2.3436058e-38
1 0.12721507 0.1497274 2.3436058e-38
1 0.14980243 0.14929 2.3436058e-38
1 0.16878164 0.14994171 2.3436058e-38
1 0.18932587 0.15093793 2.3436058e-38
1 0.20940597 0.14870468 2.3436058e-38
1 0.23018625 0.15079716 2.3436058e-38
1 0.25040388 0.1501803 2.3436058e-38
1 0.26901639 0.14785171 2.3436058e-38
1 0.29114267 0.15147571 2.3436058e-38
1 0.31258485 0.14719824 2.3436058e-38
1 0.33335876 0.15387435 2.3436058e-38
1 0.34757563 0.15155256 2.3436058e-38
1 0.37049338 0.14927888 2.3436058e-38
1 0.38657564 0.15135589 2.3436058e-38
1 0.41053739 0.14805989 2.3436058e-38
1 0.42906982 0.15269285 2.3436058e-38
1 0.45045528 0.15245786 2.3436058e-38
1 0.46726838 0.14966409 2.3436058e-38
1 0.49030688 0.15216413 2.3436058e-38
1 0.51193607 0.14972036 2.3436058e-38
1 0.52876574 0.15191895 2.3436058e-38
1 0.55024588 0.1501008 2.3436058e-38
1 0.56966907 0.15091166 2.3436058e-38
1 0.58874398 0.15080275 2.3436058e-38
1 0.6102733 0.14869681 2.3436058e-38
1 0.62852442 0.15142353 2.3436058e-38
1 0.65284413 0.14658414 2.3436058e-38
1 0.66910893 0.15283877 2.3436058e-38
1 0.69032484 0.15001471 2.3436058e-38
1 0.70643967 0.14915773 2.3436058e-38
1 0.73289561 0.1471483 2.3436058e-38
1 0.75140852 0.15325077 2.3436058e-38
1 0.77123845 0.15011211 2.3436058e-38
1 0.79122567 0.15375981 2.3436058e-38
1 0.80818373 0.14799505 2.3436058e-38
1 0.82906753 0.14892988 2.3436058e-38
1 0.85265696 0.15024285 2.3436058e-38
1 0.87074858 0.14458793 2.3436058e-38
1 0.89110756 0.14986759 2.3436058e-38
1 0.91233009 0.14818038 2.3436058e-38
1 0.92755961 0.15102166 2.3436058e-38
1 0.94955975 0.1477924 2.3436058e-38
1 0.97096336 0.14870909 2.3436058e-38
1 0.98861766 0.14907968 2.3436058e-38
1 -0.98799843 0.1669075 2.3436058e-38
1 -0.97187877 0.17074585 2.3436058e-38
1 -0.95073181 0.16972947 2.3436058e-38
1 -0.93045133 0.17073701 2.3436058e-38
1 -0.90750015 0.17069711 2.3436058e-38
1 -0.88875884 0.17058812 2.3436058e-38
1 -0.86998045 0.16899624 2.3436058e-38
1 -0.84957039 0.16934638 2.3436058e-38
1 -0.82699811 0.16870122 2.3436058e-38
1 -0.81099707 0.16912293 2.3436058e-38
1 -0.79102206 0.16814022 2.3436058e-38
1 -0.76811218 0.1701245 2.3436058e-38
1 -0.74507189 0.17099202 2.3436058e-38
1 -0.73094529 0.16844277 2.3436058e-38
1 -0.71038622 0.17282426 2.3436058e-38
1 -0.68760985 0.17208259 2.3436058e-38
1 -0.67054456 0.16933009 2.3436058e-38
1 -0.65030658 0.16816728 2.3436058e-38
1 -0.63221782 0.17126727 2.3436058e-38
1 -0.61027378 0.16964118 2.3436058e-38
1 -0.59239656 0.171718 2.3436058e-38
1 -0.56811219 0.17223449 2.3436058e-38
1 -0.55068088 0.17016736 2.3436058e-38
1 -0.52743942 0.17132109 2.3436058e-38
1 -0.51035881 0.16977704 2.3436058e-38
1 -0.49349236 0.17074171 2.3436058e-38
1 -0.47114247 0.16901527 2.3436058e-38
1 -0.44852865 0.16871047 2.3436058e-38
1 -0.43035671 0.16791603 2.3436058e-38
1 -0.40761715 0.1686731 2.3436058e-38
1 -0.38934404 0.16572806 2.3436058e-38
1 -0.37160888 0.1713223 2.3436058e-38
1 -0.35305759 0.17067783 2.3436058e-38
1 -0.33170265 0.17188536 2.3436058e-38
1 -0.30805463 0.16864496 2.3436058e-38
1 -0.2846365 0.17402649 2.3436058e-38
1 -0.26820359 0.17488194 2.3436058e-38
1 -0.25185001 0.17063612 2.3436058e-38
1 -0.23082341 0.17073826 2.3436058e-38
1 -0.21263462 0.17381425 2.3436058e-38
1 -0.18823576 0.16077614 2.3436058e-38
1 -0.16930717 0.17321546 2.3436058e-38
1 -0.15038984 0.17414792 2.3436058e-38
1 -0.13037978 0.16878489 2.3436058e-38
1 -0.10969625 0.16529536 2.3436058e-38
1 -0.090839028 0.17039105 2.3436058e-38
1 -0.070256397 0.16561651 2.3436058e-38
1 -0.046775978 0.16503572 2.3436058e-38
1 -0.028578917 0.17117405 2.3436058e-38
1 -0.01149718 0.17437959 2.3436058e-38
1 0.012131003 0.16892512 2.3436058e-38
1 0.028204633 0.16957454 2.3436058e-38
1 0.047733735 0.17029142 2.3436058e-38
1 0.069780111 0.16856837 2.3436058e-38
1 0.092785619 0.17230196 2.3436058e-38
1 0.10903904 0.16899505 2.3436058e-38
1 0.1319793 0.16774178 2.3436058e-38
1 0.14887483 0.16950792 2.3436058e-38
1 0.17209041 0.17037034 2.3436058e-38
1 0.19220524 0.17075597 2.3436058e-38
1 0.21266294 0.16848874 2.3436058e-38
1 0.23205066 0.17196608 2.3436058e-38
1 0.2501823 0.17284448 2.3436058e-38
1 0.27101064 0.16962324 2.3436058e-38
1 0.28784055 0.16744916 2.3436058e-38
1 0.31026784 0.16805562 2.3436058e-38
1 0.33249944 0.16890341 2.3436058e-38
1 0.34893155 0.16908291 2.3436058e-38
1 0.37134805 0.16951214 2.3436058e-38
1 0.39181727 0.16990909 2.3436058e-38
1 0.40976501 0.1642205 2.3436058e-38
1 0.43102235 0.17085202 2.3436058e-38
1 0.44966432 0.17166914 2.3436058e-38
1 0.47069597 0.17385614 2.3436058e-38
1 0.48728421 0.17033386 2.3436058e-38
1 0.50792283 0.16918498 2.3436058e-38
1 0.53179371 0.16807203 2.3436058e-38
1 0.55215651 0.16813034 2.3436058e-38
1 0.56944811 0.17033155 2.3436058e-38
1 0.59340876 0.16895342 2.3436058e-38
1 0.61029869 0.17167345 2.3436058e-38
1 0.62703097 0.17273657 2.3436058e-38
1 0.64945984 0.16843092 2.3436058e-38
1 0.67010784 0.16959083 2.3436058e-38
1 0.68849295 0.17197031 2.3436058e-38
1 0.71300572 0.16789035 2.3436058e-38
1 0.72919267 0.16958003 2.3436058e-38
1 0.75171775 0.16891082 2.3436058e-38
1 0.77157873 0.17159121 2.3436058e-38
1 0.78784645 0.1728065 2.3436058e-38
1 0.80872196 0.17256965 2.3436058e-38
1 0.82754689 0.17063697 2.3436058e-38
1 0.85527736 0.1705761 2.3436058e-38
1 0.86871529 0.17119183 2.3436058e-38
1 0.88869148 0.17021848 2.3436058e-38
1 0.91363353 0.17104824 2.3436058e-38
1 0.92830765 0.17170668 2.3436058e-38
1 0.94852322 0.17199847 2.3436058e-38
1 0.97026873 0.16798085 2.3436058e-38
1 0.98762852 0.16668585 2.3436058e-38
1 -0.99032515 0.19138713 2.3436058e-38
1 -0.96970028 0.19040513 2.3436058e-38
1 -0.95156747 0.19463697 2.3436058e-38
1 -0.93104398 0.19195482 2.3436058e-38
1 -0.90869212 0.18916997 2.3436058e-38
1 -0.89063722 0.1916869 2.3436058e-38
1 -0.86986399 0.19148639 2.3436058e-38
1 -0.85038 0.19066735 2.3436058e-38
1 -0.82692474 0.19147643 2.3436058e-38
1 -0.81016564 0.18545389 2.3436058e-38
1 -0.78825718 0.18982309 2.3436058e-38
1 -0.77014124 0.19190878 2.3436058e-38
1 -0.74974269 0.18823984 2.3436058e-38
1 -0.73047423 0.19359739 2.3436058e-38
1 -0.71221328 0.18908103 2.3436058e-38
1 -0.68890363 0.19017211 2.3436058e-38
1 -0.67273104 0.19048715 2.3436058e-38
1 -0.64815009 0.18968762 2.3436058e-38
1 -0.63348925 0.191769 2.3436058e-38
1 -0.61398047 0.19103087 2.3436058e-38
1 -0.59082657 0.18964867 2.3436058e-38
1 -0.56721699 0.19183302 2.3436058e-38
1 -0.54873681 0.19157326 2.3436058e-38
1 -0.52949107 0.18923537 2.3436058e-38
1 -0.50969094 0.19275963 2.3436058e-38
1 -0.49284726 0.19176441 2.3436058e-38
1 -0.47000492 0.19062796 2.3436058e-38
1 -0.449635 0.1889537 2.3436058e-38
1 -0.42748332 0.18992025 2.3436058e-38
1 -0.40866053 0.19135159 2.3436058e-38
1 -0.38885659 0.19273774 2.3436058e-38
1 -0.37022698 0.19050282 2.3436058e-38
1 -0.35027844 0.19031085 2.3436058e-38
1 -0.33241796 0.19327798 2.3436058e-38
1 -0.31166086 0.1922818 2.3436058e-38
1 -0.29155684 0.18986903 2.3436058e-38
1 -0.2712326 0.19041318 2.3436058e-38
1 -0.24856088 0.19000432 2.3436058e-38
1 -0.23153496 0.18854557 2.3436058e-38
1 -0.21088096 0.18801041 2.3436058e-38
1 -0.18661563 0.1868051 2.3436058e-38
1 -0.17125408 0.18870004 2.3436058e-38
1 -0.1479238 0.18920493 2.3436058e-38
1 -0.13045941 0.18974733 2.3436058e-38
1 -0.10778036 0.19161358 2.3436058e-38
1 -0.089889191 0.18879877 2.3436058e-38
1 -0.068808861 0.19088091 2.3436058e-38
1 -0.047600202 0.18891536 2.3436058e-38
1 -0.02765131 0.19306326 2.3436058e-38
1 -0.0088835871 0.19248269 2.3436058e-38
1 0.0091250865 0.1877936 2.3436058e-38
1 0.028203806 0.19092163 2.3436058e-38
1 0.0556615 0.19230199 2.3436058e-38
1 0.070839249 0.18753931 2.3436058e-38
1 0.093612053 0.19078909 2.3436058e-38
1 0.11127377 0.1939743 2.3436058e-38
1 0.13192387 0.19047351 2.3436058e-38
1 0.14729397 0.1871458 2.3436058e-38
1 0.17290866 0.18728511 2.3436058e-38
1 0.18997376 0.19214897 2.3436058e-38
1 0.2082715 0.19262332 2.3436058e-38
1 0.23008199 0.19241314 2.3436058e-38
1 0.24850477 0.19100381 2.3436058e-38
1 0.26840472 0.19095707 2.3436058e-38
1 0.29176933 0.19081827 2.3436058e-38
1 0.31039178 0.1905923 2.3436058e-38
1 0.33014816 0.18651359 2.3436058e-38
1 0.34824985 0.1906815 2.3436058e-38
1 0.37152177 0.1925457 2.3436058e-38
1 0.38993675 0.18978113 2.3436058e-38
1 0.41224968 0.18800765 2.3436058e-38
1 0.43005753 0.18459101 2.3436058e-38
1 0.45106855 0.19302468 2.3436058e-38
1 0.46849045 0.1876858 2.3436058e-38
1 0.49089706 0.18963918 2.3436058e-38
1 0.50921839 0.1913414 2.3436058e-38
1 0.53170061 0.18872544 2.3436058e-38
1 0.55110693 0.19171968 2.3436058e-38
1 0.56977016 0.1881671 2.3436058e-38
1 0.58655941 0.192074 2.3436058e-38
1 0.60905373 0.18904136 2.3436058e-38
1 0.62760323 0.19049147 2.3436058e-38
1 0.6515255 0.18822141 2.3436058e-38
1 0.67196482 0.19161268 2.3436058e-38
1 0.69176406 0.18961823 2.3436058e-38
1 0.70935571 0.19247119 2.3436058e-38
1 0.72790653 0.18890382 2.3436058e-38
1 0.74935395 0.18913755 2.3436058e-38
1 0.76937497 0.18810949 2.3436058e-38
1 0.7853514 0.19246408 2.3436058e-38
1 0.80579805 0.18861628 2.3436058e-38
1 0.82922882 0.19074178 2.3436058e-38
1 0.85030383 0.18772888 2.3436058e-38
1 0.86864251 0.19165772 2.3436058e-38
1 0.89344805 0.18882582 2.3436058e-38
1 0.9121896 0.19084918 2.3436058e-38
1 0.93234795 0.19035578 2.3436058e-38
1 0.94908619 0.19287238 2.3436058e-38
1 0.96949673 0.1902712 2.3436058e-38
1 0.99347085 0.1868622 2.3436058e-38
1 -0.98818207 0.21009707 2.3436058e-38
1 -0.96612597 0.20925176 2.3436058e-38
1 -0.95389384 0.205847 2.3436058e-38
1 -0.92662108 0.21189415 2.3436058e-38
1 -0.90844697 0.20868175 2.3436058e-38
1 -0.88952351 0.21368223 2.3436058e-38
1 -0.86805969 0.21006049 2.3436058e-38
1 -0.84925789 0.20838967 2.3436058e-38
1 -0.83028424 0.21018241 2.3436058e-38
1 -0.80912906 0.21287343 2.3436058e-38
1 -0.79069406 0.21167873 2.3436058e-38
1 -0.76968759 0.21021487 2.3436058e-38
1 -0.75059652 0.20654607 2.3436058e-38
1 -0.72735953 0.20866399 2.3436058e-38
1 -0.70845187 0.20953304 2.3436058e-38
1 -0.687796 0.21024168 2.3436058e-38
1 -0.66874141 0.21293661 2.3436058e-38
1 -0.64822119 0.21235768 2.3436058e-38
1 -0.62867892 0.20964782 2.3436058e-38
1 -0.60859275 0.21078821 2.3436058e-38
1 -0.58856857 0.21033911 2.3436058e-38
1 -0.5710482 0.21144228 2.3436058e-38
1 -0.55011302 0.20741351 2.3436058e-38
1 -0.53206301 0.20955312 2.3436058e-38
1 -0.51066577 0.20635486 2.3436058e-38
1 -0.49015492 0.21194741 2.3436058e-38
1 -0.46810293 0.21051602 2.3436058e-38
1 -0.44946575 0.21189766 2.3436058e-38
1 -0.43142149 0.20983894 2.3436058e-38
1 -0.40952766 0.20890605 2.3436058e-38
1 -0.38890603 0.21317258 2.3436058e-38
1 -0.37003589 0.21014313 2.3436058e-38
1 -0.35085815 0.21280214 2.3436058e-38
1 -0.33083627 0.20895779 2.3436058e-38
1 -0.3112404 0.21097341 2.3436058e-38
1 -0.29004914 0.20813459 2.3436058e-38
1 -0.27002063 0.20990522 2.3436058e-38
1 -0.24803041 0.21051681 2.3436058e-38
1 -0.23092531 0.20880663 2.3436058e-38
1 -0.20958754 0.21216604 2.3436058e-38
1 -0.19303429 0.21195245 2.3436058e-38
1 -0.1729212 0.21056953 2.3436058e-38
1 -0.15093076 0.20859277 2.3436058e-38
1 -0.1325883 0.21107739 2.3436058e-38
1 -0.11113924 0.21161407 2.3436058e-38
1 -0.087892458 0.20984674 2.3436058e-38
1 -0.069489144 0.21187742 2.3436058e-38
1 -0.045024779 0.21242581 2.3436058e-38
1 -0.030910909 0.21165466 2.3436058e-38
1 -0.007956245 0.2086675 2.3436058e-38
1 0.010366917 0.20922884 2.3436058e-38
1 0.027922524 0.21193944 2.3436058e-38
1 0.051005844 0.21036637 2.3436058e-38
1 0.071989022 0.20852968 2.3436058e-38
1 0.092062138 0.20848833 2.3436058e-38
1 0.11057124 0.20741317 2.3436058e-38
1 0.131294 0.21027851 2.3436058e-38
1 0.14862265 0.20904541 2.3436058e-38
1 0.1697527 0.21098433 2.3436058e-38
1 0.1873641 0.21060452 2.3436058e-38
1 0.21188784 0.21047789 2.3436058e-38
1 0.22627306 0.21013679 2.3436058e-38
1 0.25020051 0.2131941 2.3436058e-38
1 0.27081791 0.21071985 2.3436058e-38
1 0.28784391 0.21152364 2.3436058e-38
1 0.30950683 0.20851581 2.3436058e-38
1 0.3307769 0.20955564 2.3436058e-38
1 0.35188526 0.20781286 2.3436058e-38
1 0.3754487 0.20864306 2.3436058e-38
1 0.39109933 0.21062487 2.3436058e-38
1 0.40778622 0.20879039 2.3436058e-38
1 0.43065923 0.20738196 2.3436058e-38
1 0.44891137 0.21181886 2.3436058e-38
1 0.46938005 0.21084353 2.3436058e-38
1 0.48956415 0.20818031 2.3436058e-38
1 0.50958616 0.21013317 2.3436058e-38
1 0.53067356 0.21095586 2.3436058e-38
1 0.55270106 0.20957476 2.3436058e-38
1 0.56931096 0.21141282 2.3436058e-38
1 0.59024006 0.21106616 2.3436058e-38
1 0.61016273 0.20908572 2.3436058e-38
1 0.62976962 0.20739025 2.3436058e-38
1 0.64978951 0.20856278 2.3436058e-38
1 0.67387336 0.21060644 2.3436058e-38
1 0.69052082 0.21223989 2.3436058e-38
1 0.70785189 0.21124935 2.3436058e-38
1 0.72956872 0.20977716 2.3436058e-38
1 0.74992687 0.21018659 2.3436058e-38
1 0.76947927 0.21030331 2.3436058e-38
1 0.78604966 0.20725499 2.3436058e-38
1 0.81135255 0.20921539 2.3436058e-38
1 0.82791728 0.2078148 2.3436058e-38
1 0.8491661 0.20735285 2.3436058e-38
1 0.87012196 0.21048641 2.3436058e-38
1 0.89356071 0.20865785 2.3436058e-38
1 0.90985882 0.2111889 2.3436058e-38
1 0.93338376 0.21403152 2.3436058e-38
1 0.94884694 0.20958626 2.3436058e-38
1 0.9688015 0.20972496 2.3436058e-38
1 0.99506295 0.21157329 2.3436058e-38
1 -0.99012107 0.23002821 2.3436058e-38
1 -0.97175515 0.23048657 2.3436058e-38
1 -0.9483512 0.2301677 2.3436058e-38
1 -0.92993206 0.23041514 2.3436058e-38
1 -0.91055655 0.22936657 2.3436058e-38
1 -0.88880181 0.22954011 2.3436058e-38
1 -0.8682906 0.23096204 2.3436058e-38
1 -0.85151947 0.22895858 2.3436058e-38
1 -0.82986736 0.22966987 2.3436058e-38
1 -0.81280136 0.22936721 2.3436058e-38
1 -0.7919715 0.23005171 2.3436058e-38
1 -0.76838404 0.23027033 2.3436058e-38
1 -0.7511254 0.2293655 2.3436058e-38
1 -0.72934014 0.23109548 2.3436058e-38
1 -0.70341384 0.23457545 2.3436058e-38
1 -0.69021302 0.22734337 2.3436058e-38
1 -0.66935331 0.23030241 2.3436058e-38
1 -0.65206438 0.22870521 2.3436058e-38
1 -0.63208902 0.22878909 2.3436058e-38
1 -0.61067075 0.23252435 2.3436058e-38
1 -0.58863509 0.22629237 2.3436058e-38
1 -0.56978178 0.23262064 2.3436058e-38
1 -0.54937106 0.23105864 2.3436058e-38
1 -0.53136492 0.22901702 2.3436058e-38
1 -0.51123875 0.22948003 2.3436058e-38
1 -0.49002382 0.22932191 2.3436058e-38
1 -0.46995807 0.23009466 2.3436058e-38
1 -0.44698167 0.23155929 2.3436058e-38
1 -0.42763895 0.22989652 2.3436058e-38
1 -0.4105615 0.23295934 2.3436058e-38
1 -0.38884413 0.22996682 2.3436058e-38
1 -0.36968791 0.23063558 2.3436058e-38
1 -0.35091463 0.22895749 2.3436058e-38
1 -0.32962999 0.23182143 2.3436058e-38
1 -0.3118802 0.23015323 2.3436058e-38
1 -0.2928164 0.23125881 2.3436058e-38
1 -0.27584103 0.2310949 2.3436058e-38
1 -0.25167951 0.2328292 2.3436058e-38
1 -0.23713478 0.23043713 2.3436058e-38
1 -0.21017982 0.22727433 2.3436058e-38
1 -0.19056071 0.22788848 2.3436058e-38
1 -0.166361 0.22968341 2.3436058e-38
1 -0.14873244 0.22777933 2.3436058e-38
1 -0.12926829 0.23113465 2.3436058e-38
1 -0.10615887 0.22933342 2.3436058e-38
1 -0.093096696 0.23379931 2.3436058e-38
1 -0.070107996 0.2293275 2.3436058e-38
1 -0.050409053 0.22964266 2.3436058e-38
1 -0.027441224 0.23278157 2.3436058e-38
1 -0.011669541 0.22858644 2.3436058e-38
1 0.0094818277 0.23011827 2.3436058e-38
1 0.033526372 0.22979856 2.3436058e-38
1 0.05029982 0.22635382 2.3436058e-38
1 0.071034051 0.23060656 2.3436058e-38
1 0.088195801 0.23030156 2.3436058e-38
1 0.10698513 0.22835076 2.3436058e-38
1 0.12689956 0.22879502 2.3436058e-38
1 0.14869669 0.22966057 2.3436058e-38
1 0.16973647 0.22834456 2.3436058e-38
1 0.18916136 0.22926867 2.3436058e-38
1 0.2101761 0.23169594 2.3436058e-38
1 0.2280312 0.22987847 2.3436058e-38
1 0.2509546 0.22719042 2.3436058e-38
1 0.27257743 0.22468466 2.3436058e-38
1 0.29115593 0.23190966 2.3436058e-38
1 0.31244433 0.22863452 2.3436058e-38
1 0.33322507 0.23170555 2.3436058e-38
1 0.34859401 0.22979006 2.3436058e-38
1 0.37088543 0.23202612 2.3436058e-38
1 0.3893083 0.2293161 2.3436058e-38
1 0.41218802 0.22880837 2.3436058e-38
1 0.42973477 0.23052178 2.3436058e-38
1 0.44885847 0.23089293 2.3436058e-38
1 0.46869966 0.23111492 2.3436058e-38
1 0.49001458 0.2319831 2.3436058e-38
1 0.51062357 0.22892141 2.3436058e-38
1 0.52787304 0.23111254 2.3436058e-38
1 0.54776204 0.22988649 2.3436058e-38
1 0.57504421 0.23116088 2.3436058e-38
1 0.59253746 0.22619081 2.3436058e-38
1 0.61134213 0.23240614 2.3436058e-38
1 0.6311121 0.22788139 2.3436058e-38
1 0.65039152 0.22821224 2.3436058e-38
1 0.66835088 0.22803369 2.3436058e-38
1 0.68962264 0.22893155 2.3436058e-38
1 0.70917273 0.22847918 2.3436058e-38
1 0.73050463 0.22905521 2.3436058e-38
1 0.75068271 0.23047152 2.3436058e-38
1 0.76974547 0.22803813 2.3436058e-38
1 0.79121327 0.22517204 2.3436058e-38
1 0.80924737 0.23079798 2.3436058e-38
1 0.82866508 0.22765173 2.3436058e-38
1 0.85199821 0.23316869 2.3436058e-38
1 0.87245536 0.22984421 2.3436058e-38
1 0.88846433 0.22648506 2.3436058e-38
1 0.90847778 0.22799297 2.3436058e-38
1 0.9292345 0.23246507 2.3436058e-38
1 0.95192045 0.22966099 2.3436058e-38
1 0.97047591 0.2314195 2.3436058e-38
1 0.98691064 0.22858778 2.3436058e-38
1 -0.99021035 0.24925092 2.3436058e-38
1 -0.96986157 0.25108361 2.3436058e-38
1 -0.95105958 0.24890432 2.3436058e-38
1 -0.93172133 0.24939835 2.3436058e-38
1 -0.90729803 0.24756527 2.3436058e-38
1 -0.88815629 0.25024691 2.3436058e-38
1 -0.86985505 0.24931777 2.3436058e-38
1 -0.85078102 0.25126302 2.3436058e-38
1 -0.83148766 0.25194651 2.3436058e-38
1 -0.80927122 0.24859969 2.3436058e-38
1 -0.79331326 0.24927723 2.3436058e-38
1 -0.77123463 0.25366974 2.3436058e-38
1 -0.75060588 0.25059435 2.3436058e-38
1 -0.72963297 0.25169408 2.3436058e-38
1 -0.70924079 0.24872074 2.3436058e-38
1 -0.69254673 0.25170824 2.3436058e-38
1 -0.66844594 0.24868673 2.3436058e-38
1 -0.64958471 0.25101301 2.3436058e-38
1 -0.63178784 0.25166923 2.3436058e-38
1 -0.61234748 0.25155941 2.3436058e-38
1 -0.58887613 0.249696 2.3436058e-38
1 -0.57095826 0.25219637 2.3436058e-38
1 -0.55159605 0.2539289 2.3436058e-38
1 -0.52803957 0.25239477 2.3436058e-38
1 -0.51025712 0.24894258 2.3436058e-38
1 -0.48655578 0.24998373 2.3436058e-38
1 -0.47098455 0.24980924 2.3436058e-38
1 -0.44957784 0.24483839 2.3436058e-38
1 -0.43187857 0.2511209 2.3436058e-38
1 -0.41277975 0.24822375 2.3436058e-38
1 -0.38982174 0.25480825 2.3436058e-38
1 -0.36892572 0.25023049 2.3436058e-38
1 -0.35311887 0.2523261 2.3436058e-38
1 -0.33010587 0.25082985 2.3436058e-38
1 -0.31152701 0.24864981 2.3436058e-38
1 -0.29317093 0.25506374 2.3436058e-38
1 -0.26953715 0.24694878 2.3436058e-38
1 -0.24970949 0.25068128 2.3436058e-38
1 -0.23158984 0.24863179 2.3436058e-38
1 -0.20821317 0.24825305 2.3436058e-38
1 -0.18604608 0.24998832 2.3436058e-38
1 -0.16978993 0.2498658 2.3436058e-38
1 -0.14960393 0.24884772 2.3436058e-38
1 -0.12982556 0.24845761 2.3436058e-38
1 -0.10971928 0.24950564 2.3436058e-38
1 -0.091429353 0.25080067 2.3436058e-38
1 -0.070245191 0.25089806 2.3436058e-38
1 -0.048568863 0.25467798 2.3436058e-38
1 -0.027255854 0.24604528 2.3436058e-38
1 -0.0090394886 0.25079238 2.3436058e-38
1 0.0093706977 0.24858862 2.3436058e-38
1 0.029432934 0.24688046 2.3436058e-38
1 0.048704624 0.24820499 2.3436058e-38
1 0.072648264 0.2498187 2.3436058e-38
1 0.088385902 0.24954362 2.3436058e-38
1 0.10633925 0.24825943 2.3436058e-38
1 0.13020825 0.25164646 2.3436058e-38
1 0.14869189 0.25112876 2.3436058e-38
1 0.16967535 0.25160158 2.3436058e-38
1 0.18757106 0.25104302 2.3436058e-38
1 0.20971005 0.24747342 2.3436058e-38
1 0.23011713 0.25051156 2.3436058e-38
1 0.24859118 0.24921927 2.3436058e-38
1 0.27600402 0.25154871 2.3436058e-38
1 0.28857601 0.25113779 2.3436058e-38
1 0.31091404 0.24783674 2.3436058e-38
1 0.33284703 0.25245005 2.3436058e-38
1 0.34996524 0.25170907 2.3436058e-38
1 0.36926514 0.2489177 2.3436058e-38
1 0.39287549 0.24866281 2.3436058e-38
1 0.40945068 0.25120774 2.3436058e-38
1 0.43367115 0.25331536 2.3436058e-38
1 0.4456102 0.24984053 2.3436058e-38
1 0.47084877 0.24995188 2.3436058e-38
1 0.48904669 0.2523998 2.3436058e-38
1 0.51170516 0.24509382 2.3436058e-38
1 0.53004855 0.24927926 2.3436058e-38
1 0.5479033 0.24490318 2.3436058e-38
1 0.57180244 0.24899822 2.3436058e-38
1 0.59130019 0.25130948 2.3436058e-38
1 0.61084205 0.24910876 2.3436058e-38
1 0.62558556 0.24776053 2.3436058e-38
1 0.65176916 0.24767569 2.3436058e-38
1 0.67085677 0.25172368 2.3436058e-38
1 0.68906379 0.25030804 2.3436058e-38
1 0.70568275 0.25048536 2.3436058e-38
1 0.73168886 0.25201431 2.3436058e-38
1 0.75033069 0.24748206 2.3436058e-38
1 0.7713905 0.24859536 2.3436058e-38
1 0.78818733 0.24537191 2.3436058e-38
1 0.81237179 0.24911699 2.3436058e-38
1 0.83245236 0.25027323 2.3436058e-38
1 0.84940737 0.24941555 2.3436058e-38
1 0.87043101 0.24795295 2.3436058e-38
1 0.88678801 0.2493888 2.3436058e-38
1 0.91187191 0.25240719 2.3436058e-38
1 0.92696249 0.24769835 2.3436058e-38
