# .PCD v0.7 - Point Cloud Data file format
VERSION 0.7
FIELDS x y z rgb
SIZE 4 4 4 4
TYPE F F F F
COUNT 1 1 1 1
WIDTH 755
HEIGHT 1
VIEWPOINT 0 0 0 1 0 0 0
POINTS 755
DATA ascii
0.9996419 -0.99095696 0.99120462 2.3436058e-38
0.99963957 -0.98953855 1.0000025 2.3509598e-38
0.99963963 -0.97064435 1.0000026 2.3509598e-38
0.99963969 -0.95205897 1.0000025 2.3509598e-38
0.99963975 -0.93021929 1.0000026 2.3509598e-38
0.99963975 -0.91187871 1.0000021 2.3509598e-38
0.99963981 -0.89133489 1.0000024 2.3509598e-38
0.99963993 -0.86986411 1.0000013 2.3509598e-38
0.99963993 -0.85212302 1.0000025 2.3509598e-38
0.99964005 -0.82692516 1.0000025 2.3509598e-38
0.99964011 -0.80690604 1.000002 2.3509598e-38
0.99964011 -0.79102546 1.0000031 2.3509598e-38
0.99964017 -0.7707715 1.0000039 2.3509598e-38
0.99964023 -0.74868661 1.0000019 2.3509598e-38
0.99964029 -0.72871798 1.0000027 2.3509598e-38
0.99964035 -0.7120387 1.0000029 2.3509598e-38
0.99964041 -0.68794626 1.0000036 2.3509598e-38
0.99964046 -0.67157358 1.0000025 2.3509598e-38
0.99964052 -0.64981413 1.0000017 2.3509598e-38
0.99964058 -0.62823945 1.0000026 2.3509598e-38
0.99964064 -0.61013156 1.0000019 2.3509598e-38
0.9996407 -0.59165996 1.0000015 2.3509598e-38
0.99964076 -0.57248318 1.0000025 2.3509598e-38
0.99964082 -0.54712939 1.0000035 2.3509598e-38
0.99964088 -0.52986062 1.0000037 2.3509598e-38
0.99964094 -0.50838137 1.000002 2.3509598e-38
0.999641 -0.49191567 1.0000021 2.3509598e-38
0.99964106 -0.4681316 1.0000014 2.3509598e-38
0.99964112 -0.44841164 1.0000015 2.3509598e-38
0.99964118 -0.43034828 1.0000024 2.3509598e-38
0.99964124 -0.41082305 1.0000032 2.3509598e-38
0.9996413 -0.38820994 1.0000026 2.3509598e-38
0.99964136 -0.37024739 1.0000027 2.3509598e-38
0.99964142 -0.34866199 1.0000023 2.3509598e-38
0.99964148 -0.32964456 1.0000019 2.3509598e-38
0.99964154 -0.31205481 1.0000029 2.3509598e-38
0.9996416 -0.28715184 1.0000029 2.3509598e-38
0.99964166 -0.26821896 1.0000029 2.3509598e-38
0.99964172 -0.25205445 1.000002 2.3509598e-38
0.99964178 -0.23014846 1.0000021 2.3509598e-38
0.99964184 -0.21077251 1.0000025 2.3509598e-38
0.9996419 -0.18687481 1.0000027 2.3509598e-38
0.99964195 -0.16962263 1.000002 2.3509598e-38
0.99964201 -0.15032402 1.0000032 2.3509598e-38
0.99964207 -0.13215263 1.0000026 2.3509598e-38
0.99964213 -0.109535 1.0000021 2.3509598e-38
0.99964219 -0.089848123 1.0000011 2.3509598e-38
0.99964225 -0.070928127 1.0000025 2.3509598e-38
0.99964225 -0.053170554 1.0000026 2.3509598e-38
0.99964237 -0.029987415 1.000003 2.3509598e-38
0.99964243 -0.0092347451 1.0000017 2.3509598e-38
0.99964243 0.0098406747 1.0000024 2.3509598e-38
0.99964249 0.025974963 1.0000024 2.3509598e-38
0.99964255 0.048348308 1.0000025 2.3509598e-38
0.99964261 0.068312965 1.0000024 2.3509598e-38
0.99964267 0.090507872 1.0000027 2.3509598e-38
0.99964273 0.11019184 1.0000035 2.3509598e-38
0.99964279 0.13036612 1.0000031 2.3509598e-38
0.99964291 0.15387398 1.0000025 2.3509598e-38
0.99964291 0.17069869 1.0000021 2.3509598e-38
0.99964297 0.19059287 1.0000024 2.3509598e-38
0.99964303 0.20810327 1.000002 2.3509598e-38
0.99964309 0.2313115 1.0000017 2.3509598e-38
0.99964315 0.25241691 1.0000018 2.3509598e-38
0.99964321 0.26753446 1.0000023 2.3509598e-38
0.99964327 0.29197517 1.0000018 2.3509598e-38
0.99964333 0.31081721 1.0000026 2.3509598e-38
0.99964339 0.33351338 1.0000017 2.3509598e-38
0.99964345 0.35088524 1.0000015 2.3509598e-38
0.9996435 0.37252209 1.000002 2.3509598e-38
0.99964356 0.38714892 1.0000023 2.3509598e-38
0.99964362 0.4117907 1.000003 2.3509598e-38
0.99964368 0.42527795 1.0000008 2.3509598e-38
0.99964374 0.45123002 1.0000024 2.3509598e-38
0.9996438 0.46973574 1.0000023 2.3509598e-38
0.99964386 0.48905551 1.0000019 2.3509598e-38
0.99964392 0.50732583 1.0000027 2.3509598e-38
0.99964398 0.52899218 1.000003 2.3509598e-38
0.99964404 0.55510795 1.0000023 2.3509598e-38
0.9996441 0.56720918 1.0000023 2.3509598e-38
0.99964416 0.59670931 1.0000032 2.3509598e-38
0.99964422 0.61041498 1.000002 2.3509598e-38
0.99964428 0.63011116 1.0000025 2.3509598e-38
0.99964434 0.65010136 1.000003 2.3509598e-38
0.9996444 0.66854 1.0000027 2.3509598e-38
0.99964446 0.6901902 1.0000012 2.3509598e-38
0.99964452 0.71223521 1.0000027 2.3509598e-38
0.99964458 0.72896892 1.0000025 2.3509598e-38
0.99964464 0.74981099 1.0000027 2.3509598e-38
0.9996447 0.77054393 1.0000026 2.3509598e-38
0.9996447 0.78738993 1.0000019 2.3509598e-38
0.99964482 0.80992293 1.0000013 2.3509598e-38
0.99964482 0.82949948 1.0000036 2.3509598e-38
0.99964488 0.84887904 1.0000019 2.3509598e-38
0.99964494 0.8691417 1.0000021 2.3509598e-38
0.99964499 0.89025372 1.0000015 2.3509598e-38
0.99964505 0.90821445 1.0000027 2.3509598e-38
0.99964511 0.92888761 1.0000024 2.3509598e-38
0.99964517 0.95137793 1.0000024 2.3509598e-38
0.99964523 0.97173548 1.0000033 2.3509598e-38
0.99964529 0.99056089 1.0000026 2.3509598e-38
0.99964929 0.98904735 0.98514402 2.3436058e-38
0.99965286 0.98882985 0.97162092 2.3436058e-38
0.99965811 0.98794615 0.95190215 2.3436058e-38
0.99966389 0.99423641 0.93066573 2.3436058e-38
0.99967444 0.9915601 0.89132339 2.3436058e-38
0.99968016 0.9911992 0.86963093 2.3436058e-38
0.99968612 0.99014008 0.84761167 2.3436058e-38
0.99969006 0.99121678 0.83271545 2.3436058e-38
0.99969578 0.99102199 0.81171882 2.3436058e-38
0.99970078 0.98804331 0.79273885 2.3436058e-38
0.99970722 0.99367499 0.76870078 2.3436058e-38
0.99971235 0.99224347 0.74980193 2.3436058e-38
0.99971688 0.99372315 0.73267525 2.3436058e-38
0.99972367 0.99241465 0.70751816 2.3436058e-38
0.99972856 0.9904511 0.68905932 2.3436058e-38
0.99973369 0.98992878 0.67001837 2.3436058e-38
0.99973941 0.98929697 0.64860201 2.3436058e-38
0.99974501 0.99239784 0.62758994 2.3436058e-38
0.99974954 0.99060833 0.61078954 2.3436058e-38
0.99975502 0.99224055 0.59050804 2.3436058e-38
0.99976003 0.99041045 0.57161421 2.3436058e-38
0.99976587 0.98812211 0.5500254 2.3436058e-38
0.99977088 0.98770577 0.53117436 2.3436058e-38
0.99977624 0.98978579 0.51110107 2.3436058e-38
0.99978691 0.99458355 0.47178841 2.3436058e-38
0.99979222 0.98913288 0.45142311 2.3436058e-38
0.99979699 0.98846167 0.43365699 2.3436058e-38
0.99980414 0.99097317 0.40710956 2.3436058e-38
0.99980843 0.98946679 0.39097759 2.3436058e-38
0.99981415 0.9910174 0.36954108 2.3436058e-38
0.99981892 0.98909652 0.3519693 2.3436058e-38
0.999825 0.99063724 0.32925743 2.3436058e-38
0.99983084 0.98796678 0.30755022 2.3436058e-38
0.99983644 0.98940384 0.28658769 2.3436058e-38
0.99984062 0.98960453 0.27082765 2.3436058e-38
0.99984598 0.99139106 0.25071898 2.3436058e-38
0.99985653 0.99506295 0.21157324 2.3436058e-38
0.99986315 0.99347085 0.18686217 2.3436058e-38
0.99986851 0.98762852 0.16668582 2.3436058e-38
0.99987328 0.98861766 0.14907965 2.3436058e-38
0.99987876 0.99267697 0.12838277 2.3436058e-38
0.99988449 0.98787564 0.10709196 2.3436058e-38
0.99988949 0.98675764 0.088620462 2.3436058e-38
0.99989462 0.99019665 0.069329202 2.3436058e-38
0.99989963 0.98902166 0.05068551 2.3436058e-38
0.99990582 0.99126369 0.027480047 2.3436058e-38
0.99991024 0.99087679 0.011062217 2.3436058e-38
0.99992102 0.98774827 -0.029201096 2.3436058e-38
0.9999271 0.98635805 -0.051773626 2.3436058e-38
0.99993259 0.98844248 -0.072205089 2.3436058e-38
0.99993777 0.98951006 -0.091541663 2.3436058e-38
0.99994224 0.98962861 -0.10822459 2.3436058e-38
0.99994808 0.98630345 -0.13009574 2.3436058e-38
0.99995345 0.98890996 -0.15025958 2.3436058e-38
0.99995822 0.98741573 -0.16785713 2.3436058e-38
0.9999637 0.98983598 -0.18842806 2.3436058e-38
0.99996912 0.99041295 -0.20862204 2.3436058e-38
0.99997514 0.98752093 -0.23118871 2.3436058e-38
0.99998027 0.98956025 -0.25016394 2.3436058e-38
0.99998504 0.99191535 -0.26799369 2.3436058e-38
0.99999058 0.99050379 -0.28864175 2.3436058e-38
0.99999648 0.98762065 -0.3107098 2.3436058e-38
1.0000024 0.99234265 -0.33275142 2.3436058e-38
1.0000074 0.99145985 -0.35176179 2.3436058e-38
1.0000179 0.99359357 -0.39052925 2.3436058e-38
1.0000222 0.99012387 -0.40671635 2.3436058e-38
1.0000284 0.98963147 -0.42988676 2.3436058e-38
1.0000334 0.99103808 -0.44879788 2.3436058e-38
1.0000447 0.99314547 -0.49066073 2.3436058e-38
1.0000507 0.99071419 -0.51294041 2.3436058e-38
1.0000612 0.99122959 -0.55205351 2.3436058e-38
1.0000654 0.99073011 -0.56818759 2.3436058e-38
1.0000712 0.98996788 -0.58954608 2.3436058e-38
1.0000782 0.99134195 -0.61596668 2.3436058e-38
1.0000823 0.99251437 -0.63061523 2.3436058e-38
1.0000865 0.9898383 -0.64713842 2.3436058e-38
1.0000932 0.9920634 -0.67151439 2.3436058e-38
1.0000988 0.99037528 -0.69266027 2.3436058e-38
1.0001023 0.99313205 -0.70593387 2.3436058e-38
1.0001087 0.98875833 -0.72982782 2.3436058e-38
1.000114 0.99043101 -0.7494517 2.3436058e-38
1.0001187 0.98868817 -0.76700175 2.3436058e-38
1.0001255 0.99034125 -0.7924751 2.3436058e-38
1.0001299 0.99003518 -0.80908602 2.3436058e-38
1.0001354 0.98987383 -0.82911688 2.3436058e-38
1.0001409 0.99101835 -0.84975606 2.3436058e-38
1.0001466 0.98920697 -0.87130636 2.3436058e-38
1.0001509 0.9865905 -0.88690776 2.3436058e-38
1.0001571 0.99036825 -0.91060859 2.3436058e-38
1.0001626 0.9880662 -0.93054557 2.3436058e-38
1.000167 0.99060076 -0.94718701 2.3436058e-38
1.0001729 0.98971486 -0.96887326 2.3436058e-38
1.0001785 0.98795557 -0.99002308 2.3436058e-38
1.0001788 0.97167903 -0.99125028 2.3436058e-38
1.0001781 0.94973862 -0.98881519 2.3436058e-38
1.0001774 0.93169326 -0.98673749 2.3436058e-38
1.0001786 0.90998042 -0.99142259 2.3436058e-38
1.0001781 0.88818693 -0.98986286 2.3436058e-38
1.0001783 0.86927092 -0.99068069 2.3436058e-38
1.0001771 0.84876907 -0.98682827 2.3436058e-38
1.0001783 0.82835203 -0.99097562 2.3436058e-38
1.0001788 0.79372615 -0.99321836 2.3436058e-38
1.0001781 0.77025503 -0.99051827 2.3436058e-38
1.0001786 0.73209882 -0.99325258 2.3436058e-38
1.0001774 0.68747175 -0.9891147 2.3436058e-38
1.0001781 0.66713798 -0.99186969 2.3436058e-38
1.0001776 0.65050632 -0.99069142 2.3436058e-38
1.0001768 0.63198274 -0.98752391 2.3436058e-38
1.0001776 0.60885221 -0.99052912 2.3436058e-38
1.0001771 0.59070724 -0.98932117 2.3436058e-38
1.0001767 0.57216847 -0.98760283 2.3436058e-38
1.0001774 0.54829931 -0.99040109 2.3436058e-38
1.0001773 0.53209531 -0.99044329 2.3436058e-38
1.0001764 0.51171649 -0.98765963 2.3436058e-38
1.000176 0.49148637 -0.9858554 2.3436058e-38
1.0001781 0.4663496 -0.9939515 2.3436058e-38
1.0001775 0.45177722 -0.99206692 2.3436058e-38
1.0001768 0.43270427 -0.98974603 2.3436058e-38
1.000177 0.40924785 -0.99087703 2.3436058e-38
1.000176 0.39099655 -0.98736805 2.3436058e-38
1.0001764 0.36848101 -0.98917347 2.3436058e-38
1.0001767 0.34618133 -0.99003464 2.3436058e-38
1.000177 0.33088127 -0.99171025 2.3436058e-38
1.0001767 0.30709472 -0.99032897 2.3436058e-38
1.0001767 0.29137537 -0.99053437 2.3436058e-38
1.0001762 0.273774 -0.98923153 2.3436058e-38
1.0001771 0.2478444 -0.9931708 2.3436058e-38
1.0001768 0.2284085 -0.99187332 2.3436058e-38
1.0001758 0.20784523 -0.98862964 2.3436058e-38
1.000176 0.19077259 -0.98934788 2.3436058e-38
1.0001763 0.16831246 -0.9908973 2.3436058e-38
1.000176 0.14728117 -0.98967558 2.3436058e-38
1.0001754 0.13143826 -0.98766732 2.3436058e-38
1.0001767 0.10995686 -0.99294698 2.3436058e-38
1.0001762 0.091481537 -0.99135029 2.3436058e-38
1.0001755 0.07165575 -0.98852962 2.3436058e-38
1.0001758 0.051217478 -0.99030334 2.3436058e-38
1.0001752 0.030994484 -0.98814434 2.3436058e-38
1.0001752 0.011410925 -0.98803633 2.3436058e-38
1.0001755 -0.012566201 -0.99001396 2.3436058e-38
1.0001752 -0.032406904 -0.9888376 2.3436058e-38
1.0001755 -0.04594269 -0.98991597 2.3436058e-38
1.0001757 -0.070653655 -0.99098295 2.3436058e-38
1.0001752 -0.089923471 -0.98953485 2.3436058e-38
1.0001745 -0.10943955 -0.98710948 2.3436058e-38
1.000175 -0.13126397 -0.98892766 2.3436058e-38
1.0001746 -0.14940839 -0.98783797 2.3436058e-38
1.0001749 -0.17253011 -0.98914558 2.3436058e-38
1.000175 -0.1901634 -0.98948246 2.3436058e-38
1.0001748 -0.21123682 -0.98896325 2.3436058e-38
1.0001743 -0.22922432 -0.98715419 2.3436058e-38
1.000175 -0.25006601 -0.99062401 2.3436058e-38
1.0001752 -0.27045879 -0.99166226 2.3436058e-38
1.0001748 -0.30950651 -0.9902249 2.3436058e-38
1.0001738 -0.3295925 -0.98704302 2.3436058e-38
1.0001749 -0.34825984 -0.99097019 2.3436058e-38
1.0001751 -0.36938486 -0.99211717 2.3436058e-38
1.000174 -0.39181399 -0.98836094 2.3436058e-38
1.0001743 -0.40832439 -0.98950022 2.3436058e-38
1.000175 -0.42929769 -0.99261612 2.3436058e-38
1.0001751 -0.47231713 -0.9932344 2.3436058e-38
1.000174 -0.51068711 -0.9895432 2.3436058e-38
1.0001746 -0.52993882 -0.99205679 2.3436058e-38
1.0001739 -0.55136442 -0.98969775 2.3436058e-38
1.000174 -0.57053483 -0.99063665 2.3436058e-38
1.0001733 -0.59177697 -0.98816782 2.3436058e-38
1.0001738 -0.60885888 -0.99002659 2.3436058e-38
1.0001748 -0.62813294 -0.99345577 2.3436058e-38
1.000174 -0.64719003 -0.990955 2.3436058e-38
1.0001739 -0.67049336 -0.99102211 2.3436058e-38
1.0001732 -0.68973076 -0.98867297 2.3436058e-38
1.0001731 -0.7100203 -0.98850411 2.3436058e-38
1.0001738 -0.73325604 -0.99128717 2.3436058e-38
1.0001733 -0.74915439 -0.98971713 2.3436058e-38
1.0001743 -0.77046949 -0.99368024 2.3436058e-38
1.0001737 -0.80980235 -0.99162143 2.3436058e-38
1.0001727 -0.83353972 -0.98838806 2.3436058e-38
1.0001721 -0.84961957 -0.9861573 2.3436058e-38
1.0001726 -0.87032288 -0.98846221 2.3436058e-38
1.0001732 -0.89181519 -0.99092036 2.3436058e-38
1.0001731 -0.92526489 -0.99068612 2.3436058e-38
1.0001732 -0.95043468 -0.99124521 2.3436058e-38
1.0001726 -0.9699949 -0.98899561 2.3436058e-38
1.0001727 -0.98775643 -0.98990953 2.3436058e-38
1.0001676 -0.991328 -0.97064954 2.3436058e-38
1.0001614 -0.98930323 -0.94793171 2.3436058e-38
1.0001578 -0.99236894 -0.93449908 2.3436058e-38
1.0001516 -0.99160594 -0.91149372 2.3436058e-38
1.0001458 -0.98986685 -0.88946784 2.3436058e-38
1.0001402 -0.98805332 -0.86872059 2.3436058e-38
1.0001355 -0.99330866 -0.85121083 2.3436058e-38
1.0001292 -0.99248791 -0.82768857 2.3436058e-38
1.0001245 -0.99079645 -0.80969942 2.3436058e-38
1.0001196 -0.98687845 -0.79150009 2.3436058e-38
1.0001132 -0.98813909 -0.76822954 2.3436058e-38
1.0001078 -0.99250102 -0.74734092 2.3436058e-38
1.0001025 -0.99227589 -0.72787255 2.3436058e-38
1.0000974 -0.99191803 -0.70869476 2.3436058e-38
1.0000925 -0.99124789 -0.69028711 2.3436058e-38
1.0000859 -0.99170381 -0.66594923 2.3436058e-38
1.0000808 -0.99044979 -0.64684105 2.3436058e-38
1.0000758 -0.9879272 -0.62789935 2.3436058e-38
1.0000716 -0.98715788 -0.61254907 2.3436058e-38
1.0000656 -0.99234188 -0.58970416 2.3436058e-38
1.0000604 -0.98970658 -0.57074326 2.3436058e-38
1.0000556 -0.9888525 -0.55230486 2.3436058e-38
1.0000489 -0.990587 -0.52791148 2.3436058e-38
1.0000434 -0.98889929 -0.5070523 2.3436058e-38
1.0000383 -0.99069804 -0.48815379 2.3436058e-38
1.0000331 -0.98720133 -0.46906745 2.3436058e-38
1.0000286 -0.98996967 -0.45199171 2.3436058e-38
1.0000226 -0.98938173 -0.42989206 2.3436058e-38
1.0000176 -0.98891246 -0.41101804 2.3436058e-38
1.0000117 -0.99221593 -0.3888126 2.3436058e-38
1.0000064 -0.99000663 -0.36917558 2.3436058e-38
1.0000019 -0.99335194 -0.3521266 2.3436058e-38
0.99999559 -0.99071878 -0.328897 2.3436058e-38
0.99998945 -0.98894757 -0.30595207 2.3436058e-38
0.99998575 -0.99041289 -0.29211578 2.3436058e-38
0.99997985 -0.99357939 -0.27002308 2.3436058e-38
0.99997419 -0.99009913 -0.24900064 2.3436058e-38
0.99996907 -0.98981416 -0.22978219 2.3436058e-38
0.9999637 -0.98941797 -0.20967914 2.3436058e-38
0.9999584 -0.99068397 -0.18991038 2.3436058e-38
0.99995345 -0.98687452 -0.17140754 2.3436058e-38
0.99994808 -0.98964709 -0.15150255 2.3436058e-38
0.9999426 -0.9922561 -0.13110268 2.3436058e-38
0.99993604 -0.98755711 -0.10650979 2.3436058e-38
0.99993128 -0.99176341 -0.088866517 2.3436058e-38
0.99992597 -0.99191535 -0.068967558 2.3436058e-38
0.99992061 -0.99054652 -0.049046323 2.3436058e-38
0.99991626 -0.99223477 -0.032705754 2.3436058e-38
0.99990946 -0.98947042 -0.0073937024 2.3436058e-38
0.99990475 -0.9872427 0.010074948 2.3436058e-38
0.99989927 -0.99134487 0.030903207 2.3436058e-38
0.99988878 -0.99251318 0.069963209 2.3436058e-38
0.99988413 -0.98992473 0.08708787 2.3436058e-38
0.99987864 -0.98895854 0.10784832 2.3436058e-38
0.99987245 -0.99132419 0.13095847 2.3436058e-38
0.99986744 -0.99044675 0.14932445 2.3436058e-38
0.99986279 -0.98799843 0.16690747 2.3436058e-38
0.99985623 -0.99032515 0.19138709 2.3436058e-38
0.99985123 -0.98818207 0.21009703 2.3436058e-38
0.99984586 -0.99012107 0.23002817 2.3436058e-38
0.99984074 -0.99021035 0.24925087 2.3436058e-38
0.99983478 -0.99081105 0.27136818 2.3436058e-38
0.99982893 -0.99124432 0.29329613 2.3436058e-38
0.999825 -0.99075836 0.30780616 2.3436058e-38
0.99981928 -0.99139023 0.32907173 2.3436058e-38
0.9998132 -0.98835039 0.35208076 2.3436058e-38
0.99980819 -0.99122477 0.37070769 2.3436058e-38
0.99980354 -0.99054575 0.38799822 2.3436058e-38
0.9997983 -0.99027616 0.40743718 2.3436058e-38
0.99979258 -0.9910723 0.42876276 2.3436058e-38
0.99978721 -0.98985392 0.4489336 2.3436058e-38
0.99978161 -0.9918201 0.46986723 2.3436058e-38
0.99977612 -0.99066591 0.49009031 2.3436058e-38
0.999771 -0.99273556 0.50928724 2.3436058e-38
0.99976003 -0.98906934 0.5501734 2.3436058e-38
0.99975479 -0.99025613 0.56981462 2.3436058e-38
0.99974942 -0.99038541 0.58977687 2.3436058e-38
0.99974382 -0.99023563 0.61080563 2.3436058e-38
0.99973834 -0.98983592 0.63140786 2.3436058e-38
0.99973357 -0.98923832 0.64900392 2.3436058e-38
0.99972808 -0.98921788 0.66978419 2.3436058e-38
0.99972284 -0.98872143 0.6893062 2.3436058e-38
0.99971628 -0.98993057 0.7134946 2.3436058e-38
0.99971187 -0.9899537 0.73023576 2.3436058e-38
0.99970627 -0.99171412 0.75114042 2.3436058e-38
0.99970102 -0.98988998 0.77069384 2.3436058e-38
0.9996953 -0.99196768 0.79175925 2.3436058e-38
0.99969006 -0.98982048 0.81135929 2.3436058e-38
0.99968505 -0.99005973 0.83024508 2.3436058e-38
0.99967957 -0.98889083 0.85072905 2.3436058e-38
0.99967468 -0.98885036 0.86899346 2.3436058e-38
0.99966931 -0.99178231 0.88877636 2.3436058e-38
0.99966347 -0.99176681 0.91061294 2.3436058e-38
0.99965739 -0.98820817 0.93323511 2.3436058e-38
0.99965322 -0.98903906 0.94889653 2.3436058e-38
0.99964714 -0.99338692 0.97178417 2.3436058e-38
0.9702301 0.97145689 1 2.3509598e-38
0.97205734 0.99113762 1 2.3509598e-38
0.95295972 0.99106801 1 2.3509598e-38
0.93014336 0.98740441 1 2.3509598e-38
0.91420454 0.9888891 1 2.3509598e-38
0.886181 0.98911256 1 2.3509598e-38
0.86969399 0.99042523 1 2.3509598e-38
0.85092205 0.98987132 1 2.3509598e-38
0.82826263 0.99106133 1 2.3509598e-38
0.80918944 0.99153596 1 2.3509598e-38
0.7882843 0.99199027 1 2.3509598e-38
0.77155495 0.98856145 1 2.3509598e-38
0.74857855 0.99131668 1 2.3509598e-38
0.7267909 0.98914593 1 2.3509598e-38
0.71076268 0.99002427 1 2.3509598e-38
0.69042921 0.98910064 1 2.3509598e-38
0.66985434 0.99232399 1 2.3509598e-38
0.64971274 0.98886174 1 2.3509598e-38
0.6281814 0.98682553 1 2.3509598e-38
0.60853803 0.98889631 1 2.3509598e-38
0.59332556 0.99291968 1 2.3509598e-38
0.57043356 0.99222487 1 2.3509598e-38
0.5506739 0.98876154 1 2.3509598e-38
0.5289638 0.98911351 1 2.3509598e-38
0.50776464 0.98938435 1 2.3509598e-38
0.4917728 0.99260479 1 2.3509598e-38
0.46910784 0.98782521 1 2.3509598e-38
0.44916081 0.99081314 1 2.3509598e-38
0.42970428 0.98699629 1 2.3509598e-38
0.41068262 0.98883772 1 2.3509598e-38
0.39127967 0.98849154 1 2.3509598e-38
0.36911371 0.98745632 1 2.3509598e-38
0.35384622 0.99082655 1 2.3509598e-38
0.33065236 0.98778248 1 2.3509598e-38
0.30537346 0.99113327 1 2.3509598e-38
0.29100609 0.99042004 1 2.3509598e-38
0.26865792 0.99165946 1 2.3509598e-38
0.24891078 0.99110985 1 2.3509598e-38
0.21012196 0.99192405 1 2.3509598e-38
0.17036556 0.99284828 1 2.3509598e-38
0.14883545 0.99218577 1 2.3509598e-38
0.13065396 0.98931408 1 2.3509598e-38
0.10990649 0.9923054 1 2.3509598e-38
0.090988539 0.99045449 1 2.3509598e-38
0.049972475 0.99166965 1 2.3509598e-38
0.030154571 0.99107516 1 2.3509598e-38
0.011172831 0.9893201 1 2.3509598e-38
-0.0094753373 0.98841625 1 2.3509598e-38
-0.028843317 0.99182409 1 2.3509598e-38
-0.049542651 0.98826236 1 2.3509598e-38
-0.070893377 0.99166214 1 2.3509598e-38
-0.10927066 0.98846436 1 2.3509598e-38
-0.13048883 0.99162745 1 2.3509598e-38
-0.1490709 0.98989403 1 2.3509598e-38
-0.16983652 0.99013531 1 2.3509598e-38
-0.19688582 0.99037206 1 2.3509598e-38
-0.20993888 0.98801136 1 2.3509598e-38
-0.22894913 0.98921567 1 2.3509598e-38
-0.24893999 0.99195999 1 2.3509598e-38
-0.29286289 0.99446768 1 2.3509598e-38
-0.31108618 0.9878251 1 2.3509598e-38
-0.33021438 0.98764086 1 2.3509598e-38
-0.3439289 0.9890855 1 2.3509598e-38
-0.36837429 0.99037755 1 2.3509598e-38
-0.39468166 0.99062866 1 2.3509598e-38
-0.40975919 0.99213731 1 2.3509598e-38
-0.42944166 0.98664349 1 2.3509598e-38
-0.44928551 0.98925942 1 2.3509598e-38
-0.47075486 0.99184054 1 2.3509598e-38
-0.49032494 0.98936081 1 2.3509598e-38
-0.51016724 0.98866719 1 2.3509598e-38
-0.53374791 0.99048483 1 2.3509598e-38
-0.54784775 0.98917854 1 2.3509598e-38
-0.57333791 0.98914182 1 2.3509598e-38
-0.58988672 0.99090868 1 2.3509598e-38
-0.60976076 0.98705101 1 2.3509598e-38
-0.63272935 0.99068016 1 2.3509598e-38
-0.64879048 0.98775291 1 2.3509598e-38
-0.67243588 0.98747379 1 2.3509598e-38
-0.68744564 0.99145317 1 2.3509598e-38
-0.70912647 0.98999012 1 2.3509598e-38
-0.73099983 0.99306846 1 2.3509598e-38
-0.75035411 0.99019819 1 2.3509598e-38
-0.76803565 0.98971695 1 2.3509598e-38
-0.79173154 0.98928422 1 2.3509598e-38
-0.80741042 0.99130994 1 2.3509598e-38
-0.83220977 0.99172181 1 2.3509598e-38
-0.85124761 0.99225938 1 2.3509598e-38
-0.86918247 0.99032927 1 2.3509598e-38
-0.88753498 0.98854506 1 2.3509598e-38
-0.91002262 0.99256074 1 2.3509598e-38
-0.9300589 0.99177742 1 2.3509598e-38
-0.95089841 0.9893713 1 2.3509598e-38
-0.96763909 0.99376571 1 2.3509598e-38
-0.99247199 0.98845255 1 2.3509598e-38
-0.99071473 0.9723357 1 2.3509598e-38
-0.98700762 0.94903606 1 2.3509598e-38
-0.98932755 0.93120819 1 2.3509598e-38
-0.98767543 0.90848404 1 2.3509598e-38
-0.99056315 0.89145213 1 2.3509598e-38
-0.99058044 0.85117108 1 2.3509598e-38
-0.991795 0.80814695 1 2.3509598e-38
-0.99033993 0.78725594 1 2.3509598e-38
-0.99081153 0.77039403 1 2.3509598e-38
-0.99021047 0.75192082 1 2.3509598e-38
-0.98743504 0.72930402 1 2.3509598e-38
-0.98831868 0.71051306 1 2.3509598e-38
-0.9876852 0.68950671 1 2.3509598e-38
-0.9884159 0.66960806 1 2.3509598e-38
-0.99160045 0.65060633 1 2.3509598e-38
-0.99019802 0.62938952 1 2.3509598e-38
-0.99101049 0.60925305 1 2.3509598e-38
-0.98977911 0.59013265 1 2.3509598e-38
-0.99249893 0.57204038 1 2.3509598e-38
-0.98979717 0.54945314 1 2.3509598e-38
-0.98803675 0.52999407 1 2.3509598e-38
-0.98917019 0.51683944 1 2.3509598e-38
-0.99237311 0.49168372 1 2.3509598e-38
-0.99088073 0.46964115 1 2.3509598e-38
-0.99339551 0.44921425 1 2.3509598e-38
-0.98931992 0.42748398 1 2.3509598e-38
-0.98923862 0.40702686 1 2.3509598e-38
-0.99012882 0.39528009 1 2.3509598e-38
-0.99252009 0.36933681 1 2.3509598e-38
-0.99226433 0.34954771 1 2.3509598e-38
-0.99126673 0.31524062 1 2.3509598e-38
-0.98811024 0.28785521 1 2.3509598e-38
-0.99261016 0.26917061 1 2.3509598e-38
-0.99094474 0.2493073 1 2.3509598e-38
-0.98907399 0.22906327 1 2.3509598e-38
-0.98781157 0.21072769 1 2.3509598e-38
-0.98762023 0.1904362 1 2.3509598e-38
-0.99045372 0.17317761 1 2.3509598e-38
-0.98992938 0.14654589 1 2.3509598e-38
-0.99145997 0.13047704 1 2.3509598e-38
-0.99151981 0.10906929 1 2.3509598e-38
-0.9879756 0.089881666 1 2.3509598e-38
-0.98860389 0.068907261 1 2.3509598e-38
-0.99129546 0.050705384 1 2.3509598e-38
-0.99370766 0.010606567 1 2.3509598e-38
-0.99199122 -0.011596643 1 2.3509598e-38
-0.98848504 -0.031647064 1 2.3509598e-38
-0.99102765 -0.054168861 1 2.3509598e-38
-0.99251306 -0.089374028 1 2.3509598e-38
-0.99060941 -0.1097169 1 2.3509598e-38
-0.99143463 -0.13100508 1 2.3509598e-38
-0.99030375 -0.15418239 1 2.3509598e-38
-0.98818606 -0.16892515 1 2.3509598e-38
-0.98869789 -0.19164199 1 2.3509598e-38
-0.98717082 -0.20588242 1 2.3509598e-38
-0.98546082 -0.23106666 1 2.3509598e-38
-0.98914325 -0.25062448 1 2.3509598e-38
-0.99270004 -0.26936257 1 2.3509598e-38
-0.99157983 -0.28924146 1 2.3509598e-38
-0.99158186 -0.30894196 1 2.3509598e-38
-0.99232799 -0.32820019 1 2.3509598e-38
-0.99069148 -0.35279363 1 2.3509598e-38
-0.98844445 -0.3900111 1 2.3509598e-38
-0.98995847 -0.40927982 1 2.3509598e-38
-0.98958492 -0.43137428 1 2.3509598e-38
-0.99042237 -0.45006815 1 2.3509598e-38
-0.9899053 -0.46780083 1 2.3509598e-38
-0.99215615 -0.48855546 1 2.3509598e-38
-0.99130434 -0.5121991 1 2.3509598e-38
-0.99239224 -0.53001028 1 2.3509598e-38
-0.99394983 -0.5505752 1 2.3509598e-38
-0.99108887 -0.58938742 1 2.3509598e-38
-0.98856461 -0.6104393 1 2.3509598e-38
-0.99028558 -0.63403535 1 2.3509598e-38
-0.99165863 -0.65156955 1 2.3509598e-38
-0.98906887 -0.66764128 1 2.3509598e-38
-0.98930794 -0.68896842 1 2.3509598e-38
-0.99034929 -0.70779437 1 2.3509598e-38
-0.99077559 -0.73018187 1 2.3509598e-38
-0.98979932 -0.75100893 1 2.3509598e-38
-0.99050707 -0.77161133 1 2.3509598e-38
-0.98945266 -0.79318869 1 2.3509598e-38
-0.98953122 -0.81054544 1 2.3509598e-38
-0.98848563 -0.83011711 1 2.3509598e-38
-0.99011648 -0.84245485 1 2.3509598e-38
-0.99092728 -0.87033653 1 2.3509598e-38
-0.99057722 -0.89101493 1 2.3509598e-38
-0.99217373 -0.91047436 1 2.3509598e-38
-0.99051666 -0.92860395 1 2.3509598e-38
-0.98995656 -0.9512372 1 2.3509598e-38
-0.99163383 -0.96778023 1 2.3509598e-38
-0.98938906 -0.98757952 1 2.3509598e-38
-0.96960413 -0.99048537 1 2.3509598e-38
-0.94889498 -0.98902869 1 2.3509598e-38
-0.92807257 -0.9923296 1 2.3509598e-38
-0.91162235 -0.99199724 1 2.3509598e-38
-0.88833022 -0.991817 1 2.3509598e-38
-0.85213822 -0.98955834 1 2.3509598e-38
-0.82878441 -0.98772472 1 2.3509598e-38
-0.8111496 -0.98833245 1 2.3509598e-38
-0.78776199 -0.99109352 1 2.3509598e-38
-0.76913005 -0.98939747 1 2.3509598e-38
-0.75064367 -0.98723555 1 2.3509598e-38
-0.72811651 -0.99158299 1 2.3509598e-38
-0.70960397 -0.98892355 1 2.3509598e-38
-0.69181645 -0.99113733 1 2.3509598e-38
-0.67135477 -0.98992687 1 2.3509598e-38
-0.64877206 -0.98999774 1 2.3509598e-38
-0.62869895 -0.98895681 1 2.3509598e-38
-0.61250067 -0.98750538 1 2.3509598e-38
-0.58788174 -0.98942292 1 2.3509598e-38
-0.57153195 -0.99552917 1 2.3509598e-38
-0.53082204 -0.99314731 1 2.3509598e-38
-0.51102322 -0.99041426 1 2.3509598e-38
-0.48815534 -0.98928607 1 2.3509598e-38
-0.46777827 -0.98944527 1 2.3509598e-38
-0.44907129 -0.99270409 1 2.3509598e-38
-0.42892861 -0.98874229 1 2.3509598e-38
-0.41065925 -0.99051499 1 2.3509598e-38
-0.39220729 -0.98916292 1 2.3509598e-38
-0.37540397 -0.9911173 1 2.3509598e-38
-0.35011116 -0.9909001 1 2.3509598e-38
-0.32890221 -0.99079531 1 2.3509598e-38
-0.30689994 -0.98943776 1 2.3509598e-38
-0.29326659 -0.98761678 1 2.3509598e-38
-0.27083477 -0.99228436 1 2.3509598e-38
-0.24788852 -0.98819774 1 2.3509598e-38
-0.22892325 -0.98827487 1 2.3509598e-38
-0.21273682 -0.98991245 1 2.3509598e-38
-0.18884012 -0.99344754 1 2.3509598e-38
-0.17003345 -0.99083012 1 2.3509598e-38
-0.14961013 -0.98947716 1 2.3509598e-38
-0.12669888 -0.98883873 1 2.3509598e-38
-0.092441365 -0.99345911 1 2.3509598e-38
-0.072340578 -0.98905027 1 2.3509598e-38
-0.051409941 -0.99248463 1 2.3509598e-38
-0.02904439 -0.99037302 1 2.3509598e-38
-0.010087204 -0.99055409 1 2.3509598e-38
0.011923886 -0.9899115 1 2.3509598e-38
0.031684346 -0.9930526 1 2.3509598e-38
0.054639935 -0.99221766 1 2.3509598e-38
0.071230412 -0.98972321 1 2.3509598e-38
0.086974561 -0.99149632 1 2.3509598e-38
0.108086 -0.99044204 1 2.3509598e-38
0.12822501 -0.99144721 1 2.3509598e-38
0.1488726 -0.98688757 1 2.3509598e-38
0.17065012 -0.99096209 1 2.3509598e-38
0.18809658 -0.99107766 1 2.3509598e-38
0.20730782 -0.99154425 1 2.3509598e-38
0.22947335 -0.98881149 1 2.3509598e-38
0.25032127 -0.99031347 1 2.3509598e-38
0.26777872 -0.98568493 1 2.3509598e-38
0.29437983 -0.98914623 1 2.3509598e-38
0.30919218 -0.99063122 1 2.3509598e-38
0.32694691 -0.98795664 1 2.3509598e-38
0.35348979 -0.99166733 1 2.3509598e-38
0.36885083 -0.99239147 1 2.3509598e-38
0.39161718 -0.99045372 1 2.3509598e-38
0.42920303 -0.99253815 1 2.3509598e-38
0.45025551 -0.99088681 1 2.3509598e-38
0.4692457 -0.99102652 1 2.3509598e-38
0.49078763 -0.992495 1 2.3509598e-38
0.51004106 -0.9912113 1 2.3509598e-38
0.53304452 -0.98868984 1 2.3509598e-38
0.54863864 -0.98797727 1 2.3509598e-38
0.57171053 -0.98749822 1 2.3509598e-38
0.58969826 -0.99115795 1 2.3509598e-38
0.61394614 -0.99251956 1 2.3509598e-38
0.62847626 -0.99049318 1 2.3509598e-38
0.65020478 -0.99025792 1 2.3509598e-38
0.67037278 -0.99092603 1 2.3509598e-38
0.69148362 -0.9933213 1 2.3509598e-38
0.70951188 -0.9937216 1 2.3509598e-38
0.72769183 -0.9875505 1 2.3509598e-38
0.75170678 -0.98871964 1 2.3509598e-38
0.76866305 -0.98652047 1 2.3509598e-38
0.79043865 -0.98854977 1 2.3509598e-38
0.80898666 -0.98960131 1 2.3509598e-38
0.83036655 -0.98936874 1 2.3509598e-38
0.85230732 -0.98902315 1 2.3509598e-38
0.87116611 -0.99158478 1 2.3509598e-38
0.88953257 -0.98987538 1 2.3509598e-38
0.90934926 -0.99086684 1 2.3509598e-38
0.92983609 -0.98839825 1 2.3509598e-38
0.94859076 -0.99365962 1 2.3509598e-38
0.9693858 -0.99035484 1 2.3509598e-38
0.97570723 -0.97050768 1 2.3509598e-38
0.9701252 -0.92956442 1 2.3509598e-38
0.96910441 -0.91142523 1 2.3509598e-38
0.96944028 -0.88992941 1 2.3509598e-38
0.96820247 -0.87054938 1 2.3509598e-38
0.97072113 -0.84884536 1 2.3509598e-38
0.96946156 -0.83045125 1 2.3509598e-38
0.9715727 -0.80724663 1 2.3509598e-38
0.97000885 -0.78931165 1 2.3509598e-38
0.9695456 -0.76806188 1 2.3509598e-38
0.97365934 -0.72882074 1 2.3509598e-38
0.9706139 -0.70893604 1 2.3509598e-38
0.96643591 -0.6917063 1 2.3509598e-38
0.96875346 -0.67001343 1 2.3509598e-38
0.97059131 -0.64988959 1 2.3509598e-38
0.96993107 -0.62938994 1 2.3509598e-38
0.97272474 -0.6099537 1 2.3509598e-38
0.96904242 -0.58704323 1 2.3509598e-38
0.97080547 -0.56631857 1 2.3509598e-38
0.97105712 -0.55084103 1 2.3509598e-38
0.9703626 -0.52916932 1 2.3509598e-38
0.96820962 -0.50582135 1 2.3509598e-38
0.97162431 -0.489968 1 2.3509598e-38
0.97080541 -0.47046915 1 2.3509598e-38
0.96950859 -0.45115063 1 2.3509598e-38
0.96891481 -0.42817637 1 2.3509598e-38
0.96947348 -0.41006994 1 2.3509598e-38
0.9694432 -0.38965237 1 2.3509598e-38
0.97063321 -0.37374151 1 2.3509598e-38
0.96901542 -0.35051009 1 2.3509598e-38
0.96842778 -0.3328158 1 2.3509598e-38
0.9707706 -0.31075066 1 2.3509598e-38
0.97188681 -0.28935468 1 2.3509598e-38
0.97270381 -0.27036488 1 2.3509598e-38
0.97069722 -0.25136554 1 2.3509598e-38
0.96970665 -0.23082162 1 2.3509598e-38
0.96898842 -0.21072046 1 2.3509598e-38
0.96904123 -0.19217294 1 2.3509598e-38
0.96653003 -0.17385373 1 2.3509598e-38
0.96811479 -0.15089932 1 2.3509598e-38
0.96643341 -0.12936899 1 2.3509598e-38
0.97143584 -0.10917749 1 2.3509598e-38
0.96979058 -0.090050399 1 2.3509598e-38
0.96967512 -0.071179233 1 2.3509598e-38
0.96949828 -0.046930742 1 2.3509598e-38
0.96933883 -0.031018894 1 2.3509598e-38
0.97053576 -0.011354446 1 2.3509598e-38
0.96761787 0.0084935101 1 2.3509598e-38
0.96917802 0.030275399 1 2.3509598e-38
0.97342825 0.049418587 1 2.3509598e-38
0.97137594 0.089398824 1 2.3509598e-38
0.96877456 0.11189352 1 2.3509598e-38
0.96629488 0.13647155 1 2.3509598e-38
0.96964902 0.15001094 1 2.3509598e-38
0.97253287 0.17114973 1 2.3509598e-38
0.97247517 0.19095345 1 2.3509598e-38
0.96994591 0.2083931 1 2.3509598e-38
0.96810448 0.23149538 1 2.3509598e-38
0.9704597 0.25015748 1 2.3509598e-38
0.97156292 0.28733912 1 2.3509598e-38
0.97075421 0.30986398 1 2.3509598e-38
0.96943098 0.33210337 1 2.3509598e-38
0.97138238 0.35113347 1 2.3509598e-38
0.97079283 0.37063682 1 2.3509598e-38
0.96844816 0.38768688 1 2.3509598e-38
0.96816623 0.41063905 1 2.3509598e-38
0.97045809 0.43012911 1 2.3509598e-38
0.97040957 0.45022196 1 2.3509598e-38
0.96857113 0.46928579 1 2.3509598e-38
0.96893942 0.48745289 1 2.3509598e-38
0.96781623 0.51121891 1 2.3509598e-38
0.9731757 0.53124917 1 2.3509598e-38
0.97144938 0.54984564 1 2.3509598e-38
0.97150594 0.57076138 1 2.3509598e-38
0.96860373 0.58811402 1 2.3509598e-38
0.96947527 0.60819256 1 2.3509598e-38
0.96950299 0.62973231 1 2.3509598e-38
0.96871966 0.64704913 1 2.3509598e-38
0.97188044 0.67149037 1 2.3509598e-38
0.96887696 0.69037127 1 2.3509598e-38
0.97017062 0.70944023 1 2.3509598e-38
0.96784031 0.72836095 1 2.3509598e-38
0.97260904 0.7499966 1 2.3509598e-38
0.96911865 0.76846439 1 2.3509598e-38
0.97016275 0.78961009 1 2.3509598e-38
0.97112238 0.81154716 1 2.3509598e-38
0.96974671 0.83319068 1 2.3509598e-38
0.97004527 0.85140032 1 2.3509598e-38
0.97144306 0.86641669 1 2.3509598e-38
0.97036594 0.88744742 1 2.3509598e-38
0.968427 0.9090023 1 2.3509598e-38
0.97291028 0.93120366 1 2.3509598e-38
0.96868312 0.9531185 1 2.3509598e-38
