# .PCD v0.7 - Point Cloud Data file format
VERSION 0.7
FIELDS x y z
SIZE 4 4 4
TYPE F F F
COUNT 1 1 1
WIDTH 1455
HEIGHT 1
VIEWPOINT 0 0 0 1 0 0 0
POINTS 1455
DATA ascii
-0.97009575 -0.82200593 1.0279696
0.033187389 0.92835599 1.0147053
0.46824443 0.96974957 1.0230108
0.48191962 0.92485476 1.0366395
0.31936753 0.98162061 1.0259018
0.52904838 0.98100901 1.0257142
0.078782558 0.97484815 1.0237405
0.12558599 0.97462356 1.0177493
0.067933187 0.87985831 1.0200689
0.13991022 0.92001224 1.041636
0.023359776 0.88763934 1.0251611
-0.97501773 -0.7251274 1.0160059
-0.92177981 -0.72785848 1.0165265
0.20767829 0.39691222 1.013469
0.32703629 0.43354875 1.0122275
0.2553871 0.53527749 1.0050627
0.48145062 0.42795277 1.0277579
0.54765916 0.30990401 1.0422876
0.47365946 0.32531071 1.0244002
0.36961365 0.46881783 1.0406849
0.725191 0.87593669 1.0185988
0.67427009 0.98153591 1.024155
0.53034031 0.88733435 1.0182884
0.87688661 0.97645259 1.0233102
0.92015928 0.98110718 1.0228916
0.92759985 0.93261027 1.0050398
0.3672435 0.88279861 1.0335668
0.42382368 0.92647552 1.0306623
0.32391992 0.8228119 1.0239282
0.31140172 0.78429645 1.0282698
0.36957312 0.82717484 1.0221179
0.9311949 0.072568491 1.0229185
0.87117767 0.11724269 1.0294632
0.92770576 0.12276002 1.0279698
0.42853254 0.27174836 1.0265236
0.37416992 0.22953102 1.0263387
0.37571657 0.22459035 1.0246624
0.42193893 0.32945037 1.0221123
0.48161155 0.27232346 1.0328557
0.47880676 -0.21800202 1.0293498
0.50460184 -0.40009987 1.0398318
0.4238407 -0.28019491 1.0322146
0.47500658 -0.32692263 1.0297207
0.82799828 -0.035444874 1.0373236
0.67685187 -0.032452427 1.0314786
0.6723389 -0.073512763 1.0305023
0.56851649 -0.22151901 1.0284623
0.7294277 -0.01897949 1.0327277
-0.075683698 -0.92443818 1.0293014
-0.12913601 -0.80829304 1.0417852
-0.17283526 -0.98416704 1.0257102
0.96095252 0.91046667 1.0238013
0.97207832 0.92847985 1.0188401
0.96728688 0.87215352 1.01819
0.97119188 0.820081 1.0254569
0.57575083 -0.57533562 1.0337666
0.47537857 -0.57297969 1.0322737
0.47283915 -0.92267102 1.0238007
0.42488798 -0.82415104 1.0185256
0.52178794 -0.82688075 1.0157858
-0.8794449 -0.87267059 1.0266794
-0.72531122 -0.87340415 1.0114164
-0.76949137 -0.87599224 1.0254276
-0.72357321 -0.93033719 1.020421
-0.79280835 -0.9790948 1.0160103
-0.68455458 -0.97533226 1.027723
-0.52855891 -0.9730525 1.0155255
-0.61760992 -0.93010318 1.0261247
0.87748754 -0.37940308 1.02193
0.82324553 -0.37145433 1.0199844
0.80672795 -0.43125567 1.0082959
0.90874624 -0.36276168 1.0184608
0.012821516 0.86790121 1.031762
0.09157604 0.71670365 1.0429466
0.071224093 0.77211905 1.0301149
-0.17306562 0.92358547 1.0334538
-0.12240656 0.9763695 1.0213846
-0.0067201788 -0.61638975 1.0405015
-0.13821465 -0.57828611 1.0382695
-0.11580206 -0.72059101 1.0331969
-0.026690587 -0.72503364 1.0323659
-0.074362278 -0.77128601 1.0182329
-0.11916725 -0.67771417 1.0228479
-0.17134261 -0.80289984 1.006075
-0.17239326 -0.72470045 1.0230534
-0.032973018 0.68813521 1.0304017
0.42661616 0.97210562 1.0211837
0.37445569 0.87199253 1.0201026
0.2762433 0.82938462 1.0201848
0.33056885 0.88310879 1.0242943
0.27445957 0.96815085 1.0209244
0.13753824 0.93525535 1.0346044
0.47707802 0.82611668 1.0210496
0.52265137 0.82881618 1.0204048
0.42905337 0.72509962 1.0197809
0.36268389 0.64928645 1.0068722
0.096749589 0.68879378 1.0087998
0.18266597 0.72626185 1.0163082
0.19673786 0.77297401 1.0176934
0.034125499 0.73788208 1.0147746
-0.012860567 0.6407131 1.004509
0.13009481 0.67717117 1.0229169
0.21998858 0.6783964 1.0187162
0.034839105 0.55053192 1.0088061
0.037517812 0.62937766 1.021752
-0.051218491 0.63130689 1.0042006
0.15780163 -0.59011006 1.0391611
0.15770678 -0.42318854 1.042137
0.1394085 -0.59612495 1.042094
0.17715162 -0.51541889 1.0276799
0.2309352 -0.5248512 1.0261933
0.23182511 -0.47532088 1.0250156
0.37028491 -0.37043554 1.0275866
-0.82765597 -0.77244693 1.0216008
0.27750421 0.32180309 1.0206854
0.18579274 0.2383981 1.0095609
0.23900437 0.20820312 1.0055773
0.42752767 0.47192207 1.0179456
0.57873213 0.52880955 1.0160214
0.4145914 0.57467788 1.0157115
0.37443757 0.52343619 1.0280719
0.33366138 0.48071957 1.0250348
0.32049283 0.22242507 1.0271866
0.37749925 0.18115358 1.0254829
0.47643846 0.38445571 1.019132
0.67731369 0.033950806 1.0255212
0.5957073 -0.014153328 1.0088722
0.74810594 -0.031852759 1.0083967
0.77251887 0.9157424 1.0235705
0.8324551 0.97093946 1.031629
0.77546757 0.9778043 1.0287564
0.72304195 0.97419578 1.0302604
0.81721616 0.86684215 1.0253043
0.27985215 0.522232 1.0187035
0.26572299 0.57477993 1.0233032
0.31863296 0.57532185 1.0292147
0.20540266 0.46353331 1.04125
0.47288698 0.67210597 1.02798
0.32385567 0.52678984 1.0253357
0.5279671 0.93076509 1.0232522
0.5563885 0.89271557 1.0278848
0.59352052 0.96682012 1.0247962
0.57526004 0.82638055 1.0282925
0.62985194 0.87015897 1.029201
0.82932621 0.067367077 1.0219603
0.91907138 0.11592927 1.0111394
0.92913002 -0.12301646 1.0259174
0.97784126 -0.17024797 1.0272678
0.97725475 -0.071561471 1.0257734
0.88219929 -0.092776559 1.0092962
0.62688583 0.30606762 1.0386503
0.62734944 0.25053889 1.0354716
0.47218168 -0.3704935 1.0278227
0.42053029 -0.33128226 1.0091749
0.52778584 -0.3205187 1.0209359
0.47727039 0.22182094 1.0261877
0.49688527 0.24196485 1.0252393
0.42889595 0.17525733 1.0192796
0.52111912 -0.22896799 1.0171092
0.58442098 -0.27399874 1.0177706
0.12481546 0.62287271 1.0328265
0.026719611 0.58317339 1.0223107
0.32800889 0.27915108 1.0306057
0.34038085 0.45620576 1.0250969
0.36960444 0.43253592 1.0267463
0.61188394 -0.055818275 1.0298002
0.62489629 -0.21953988 1.0341281
0.7731576 -0.12270238 1.0305901
0.61775315 0.46889085 1.026015
0.57151592 0.47598562 1.0240011
0.52672583 0.50680357 1.0309353
0.59696782 0.47561833 1.0290961
0.52695942 0.37320477 1.0220722
-0.018342495 -0.97288948 1.0272913
0.014283441 -0.97183681 1.0302801
-0.078091092 -0.98018986 1.0221945
-0.021711271 -0.92432475 1.0216068
0.075915337 -0.8765952 1.0195817
0.018513579 -0.86906981 1.0263114
0.97126168 -0.021835458 1.0296259
0.93048567 -0.25928688 1.0340537
0.97112334 -0.27206933 1.0290426
0.97669494 -0.36213773 1.0341415
0.89573747 -0.37953418 1.0236309
0.87131929 -0.2673758 1.0348454
0.83100325 -0.36101475 1.03211
0.47608465 -0.77781141 1.0227054
0.53073496 -0.7720111 1.0221087
0.53465694 -0.87131304 1.036092
0.41639134 -0.83791518 1.027705
0.78726751 -0.31993851 1.0372026
0.76397383 -0.37373149 1.0404457
0.17376465 -0.97156751 1.030043
0.17751288 -0.92704809 1.030232
0.22685152 -0.93262172 1.0331699
0.4282681 -0.92981666 1.0196286
0.61585081 -0.95301104 1.0134995
0.42047873 -0.97839063 1.0217712
-0.97605908 -0.86661524 1.0241392
-0.97662562 -0.92561704 1.018719
-0.92208207 -0.97814804 1.0282364
-0.58049875 -0.9735837 1.0263937
-0.76862085 -0.92463702 1.0173289
-0.87708318 -0.9722017 1.025386
-0.72500151 -0.97303885 1.0254933
0.90234905 0.74380344 1.0123782
0.97354913 0.71665418 1.0269186
0.97810853 0.57941163 1.0160811
0.93437445 0.62887365 1.0223205
0.80678749 0.77448261 1.005129
0.77601308 0.65122002 1.0153641
0.97192264 -0.32920951 1.0288447
-0.033316206 -0.6779322 1.0198843
0.24730349 -0.077452205 1.0388855
0.32466394 -0.077023208 1.0321422
0.31631786 -0.01702241 1.0327694
-0.57716745 -0.87614018 1.036366
-0.48762047 -0.97455347 1.0347167
-0.2559526 -0.59947753 1.0372407
0.12268683 0.7244423 1.0280777
-0.88266927 -0.019355025 1.0357332
-0.86687613 -0.17338684 1.0326703
-0.98113668 -0.12733376 1.0337932
-0.92428446 -0.17084312 1.0322363
-0.87084669 -0.12031305 1.0276353
-0.078126252 0.87767887 1.0240669
-0.12053963 0.83235967 1.0253191
-0.87744421 0.87426227 1.029453
-0.9292146 0.97720826 1.0332891
-0.9864133 0.93469232 1.0243095
-0.9152028 0.77661073 1.0313768
-0.96191502 0.82423091 1.02052
-0.77380824 0.8283931 1.0295264
-0.82908678 0.87091857 1.0231751
-0.87834275 0.82098615 1.023084
-0.97748768 0.72539926 1.0244935
-0.92061722 0.72222382 1.0154426
-0.13084671 -0.76088929 1.0323478
-0.067947239 0.67438412 1.0183697
-0.063926592 0.62203753 1.0250549
-0.17621517 0.62085158 1.0254167
-0.17306194 0.72510517 1.023381
-0.021337606 0.57252306 1.0269421
-0.0030447645 0.47185326 1.042362
-0.079888046 0.57356042 1.0203236
0.33268622 0.92047381 1.0244987
0.33125159 0.88261366 1.024593
0.47041526 0.77624846 1.0228839
0.5272007 0.77537888 1.0291853
0.47752157 0.87728906 1.0258946
0.11777888 0.8694737 1.0263395
0.17411228 0.93283224 1.0273055
0.17818271 0.82390684 1.0294172
0.21584861 0.92504203 1.022428
0.22527441 0.97421908 1.0263593
-0.87616926 0.97398722 1.0288547
0.22612266 0.68092239 1.0314645
0.37635455 0.68181026 1.031265
0.27160931 0.7250089 1.0232656
0.17702901 0.7765817 1.0272232
0.38222286 0.91730076 1.0204854
0.31661367 0.60541266 1.0082334
0.23459764 0.62647265 1.0203357
0.37251431 0.77597117 1.0224355
0.019642651 0.83399469 1.0267336
0.25181976 0.66219497 1.0152555
0.31890738 0.6309135 1.0155386
0.02631445 0.66260296 1.0243726
0.54022348 -0.35605308 1.0320147
0.61745453 -0.32907781 1.0166487
0.44453532 -0.78907174 1.0248417
0.22235511 -0.67321706 1.0282698
0.28278366 -0.41326451 1.0296003
0.28051955 -0.42140082 1.026587
0.32660776 -0.47438836 1.025725
0.13212559 -0.76900011 1.0088255
0.055227816 -0.79199225 1.0332596
0.12155473 -0.82395434 1.0310972
0.37181398 -0.42483887 1.0269231
0.3329142 -0.36602449 1.0217505
0.27017781 -0.52612019 1.0248364
0.37172002 -0.61819798 1.0363035
0.28251186 -0.57467872 1.0241286
0.42873225 -0.37722984 1.0251138
0.4755927 -0.42186773 1.031698
0.34176594 -0.37211585 1.0137353
0.32903388 0.32787377 1.0243486
0.21966693 0.32587263 1.0284022
0.17731296 0.17255265 1.0216423
0.060673237 0.12492418 1.0127188
0.32099292 0.16820113 1.0232532
0.5734061 0.17540918 1.0296787
0.36670357 0.10606764 1.0176187
0.32773751 0.029175123 1.0144264
0.44172445 0.10691252 1.0133629
0.12071535 -0.42664281 1.037039
0.77335376 -0.36771035 1.0203463
0.83011132 -0.26956138 1.0181105
0.77894104 -0.42455846 1.0203979
0.7273854 -0.38060829 1.0209889
0.83866453 -0.34144434 1.022368
0.42525709 0.42241079 1.0187932
0.52330732 0.4235054 1.0240917
0.26675105 0.028418224 1.0123531
0.30595642 -0.06795001 1.0084921
0.72726893 0.02453283 1.0270251
0.52269477 0.2708993 1.0140946
0.59902513 0.61126709 1.0153667
0.65926725 0.59928995 1.0109653
0.85346168 0.88380444 1.024249
0.78211099 0.87935817 1.0217105
0.92457813 0.87597907 1.0310751
0.91778779 0.78155905 1.0324568
0.82436961 0.62886649 1.0343879
0.81966609 0.49783018 1.0293392
0.72734398 0.55948985 1.0425221
0.87577987 0.52427232 1.0237972
0.79874438 0.79769802 1.0251908
0.27431324 0.62700641 1.0276239
0.51579213 0.6236856 1.0249774
0.56903785 0.63355869 1.0179662
0.56932449 0.92422885 1.025591
0.66884196 0.87325585 1.0211214
0.57384157 0.72281432 1.0183625
0.67197502 0.91855764 1.0227003
0.93032956 0.53952628 1.023702
0.97877139 0.4814795 1.0353106
0.91946793 0.52018726 1.0227166
0.74975735 0.50083655 1.0272976
0.77504283 0.5214532 1.0219781
0.9146018 0.019796532 1.0279735
0.79234767 -0.20147598 1.0160286
0.93521959 -0.2648991 1.0187992
0.88472623 0.3855792 1.0354154
0.925668 0.37177426 1.0372088
0.8254016 0.2242081 1.030261
0.63237983 0.42078647 1.0324686
0.72637331 0.42640969 1.0208821
0.68438017 0.35319436 1.0321575
0.87097359 0.17427249 1.0244424
0.73235846 0.23043859 1.008129
0.86908221 0.27301681 1.0238322
0.47838074 0.17573364 1.0230645
0.42779359 0.12794638 1.0194741
0.47238594 -0.27923575 1.026318
0.5796327 -0.12549424 1.0276792
0.57143193 -0.080764584 1.0293633
0.62622809 -0.097706005 1.0187852
0.52506638 -0.12635612 1.0210027
0.19961737 0.47212571 1.0237505
0.23392756 0.43716845 1.0200815
0.070409931 0.47150877 1.0313979
0.13038874 0.58227342 1.024168
0.63204658 -0.077424884 1.022747
0.62209159 -0.018694103 1.0302041
0.73042554 -0.076023817 1.0274019
0.87030333 -0.061866678 1.0239208
0.83314019 -0.078049481 1.0272177
0.67226493 0.5215925 1.0257804
-0.12760289 -0.92736554 1.0271684
-0.12132452 -0.87433255 1.0265732
-0.17576626 -0.87586629 1.0294338
-0.12865838 -0.97634459 1.0209198
-0.17654657 -0.78915292 1.0302935
-0.020441957 -0.82016432 1.0348361
0.0067226551 -0.77561104 1.0229943
0.92812175 -0.93179703 1.0296112
0.9696914 -0.83519095 1.0332743
0.97645819 -0.97152251 1.029682
0.97648644 -0.87439281 1.0267951
0.91519123 -0.071409777 1.0218071
0.42344472 -0.78143257 1.0291166
0.27352038 -0.96864969 1.0335045
0.72942227 -0.6664297 1.0361559
0.65878534 -0.54922211 1.0311378
0.76307893 -0.28268838 1.0394846
0.72520113 -0.42641672 1.0255656
0.65784502 -0.4205772 1.0148665
0.68287414 -0.4761332 1.025122
0.92503345 -0.47484139 1.0307759
0.81778717 -0.72946709 1.0264904
0.82207739 -0.68309587 1.032074
0.933146 -0.76424158 1.0418195
0.87216121 -0.73041385 1.0277296
0.50123048 -0.75196147 1.008719
0.56894988 -0.91889727 1.0264344
0.62250268 -0.87818384 1.0215702
0.12135789 -0.92119908 1.0266182
0.030658465 -0.92131311 1.0241457
-0.36770478 -0.98075449 1.0222845
-0.42131275 -0.92852396 1.0187392
-0.42690682 -0.97882587 1.0254358
-0.37374625 -0.92398822 1.0258865
-0.2820524 -0.97850662 1.0271877
-0.87117022 -0.92042822 1.020865
-0.82877529 -0.92467743 1.0290179
-0.77508545 -0.97571027 1.0221264
0.97165239 0.13337564 1.0216351
0.82715416 0.52276081 1.0194294
0.82723808 0.46986037 1.0278947
-0.075973228 -0.72406745 1.0243793
0.077884465 -0.6814779 1.023542
-0.075805351 -0.63043547 1.0243173
0.32553101 -0.76821929 1.0163139
0.32091981 -0.82714504 1.0197699
0.23100443 -0.88086635 1.02048
0.37302572 -0.97486585 1.0235039
-0.39949736 -0.28090507 1.0400639
-0.44453228 -0.13584706 1.0395739
-0.52641076 -0.22550096 1.0291303
-0.4730354 -0.17841431 1.0269747
0.226105 -0.27649656 1.029662
0.12926579 -0.32221755 1.0272982
0.11024072 -0.19383977 1.0399424
-0.46812132 -0.9290871 1.0278115
-0.52147835 -0.92284983 1.0285491
-0.22612259 -0.73005652 1.0270844
-0.23268569 -0.77437788 1.0278426
-0.074104488 0.47166491 1.0210289
-0.066826008 0.42896518 1.0187033
-0.82747066 0.12602077 1.0312828
-0.77519584 0.13669406 1.0309801
-0.73427087 0.070129968 1.0348094
-0.96761918 0.081721716 1.0261921
-0.98083794 0.18470021 1.0274113
-0.8708691 0.12329073 1.0237858
-0.11896928 0.92302382 1.0243616
-0.019778728 0.82601815 1.0200747
-0.13124943 0.77366638 1.0211678
-0.97771192 0.12030987 1.0195677
-0.91940033 0.87425041 1.0169222
-0.97898173 0.97843063 1.0196923
-0.91726124 0.80293429 1.0251389
-0.97519428 0.67370385 1.024346
0.4219251 0.82953727 1.0240189
0.077715039 0.82829213 1.0255005
0.22739482 0.87640065 1.0270842
0.18203966 0.96719617 1.0280231
-0.77845556 0.87360054 1.0248958
-0.75746757 0.78732908 1.0251865
-0.75595582 0.87152106 1.0236375
-0.81899995 0.97108448 1.0246141
-0.66400492 0.97914785 1.0274132
-0.67625141 0.85954905 1.041187
0.19467123 0.66069722 1.0257273
0.32352799 0.72469616 1.021919
0.37186837 0.62908256 1.018865
0.46411416 0.86228991 1.0257941
0.22786246 0.72992188 1.0190519
0.024928873 0.72914332 1.0207014
0.021971937 0.65028399 1.0202526
0.42042691 -0.62783802 1.0193062
0.42866927 -0.52457523 1.0193624
0.53126413 -0.37401733 1.0344238
0.64339662 -0.41471416 1.0159478
0.67165571 -0.38301203 1.0301926
0.67686522 -0.42512369 1.0291723
0.28322673 -0.73159242 1.0268996
0.27954441 -0.68003893 1.0263041
0.22349441 -0.76315254 1.0295258
0.2735028 -0.77748179 1.0290419
0.16927294 -0.62704635 1.0268986
0.27801132 -0.62374508 1.0240492
0.32986557 -0.62751997 1.0234309
0.32630244 -0.67340559 1.0187806
0.17954698 -0.87587625 1.0273205
0.23268175 -0.87745398 1.0287383
0.38233432 -0.86545402 1.0211179
0.4262189 -0.32565176 1.0226203
0.31890345 -0.42915383 1.0190327
0.20143573 -0.36615965 1.0074582
-0.62813872 -0.056357246 1.0262274
-0.58233082 -0.077344656 1.0257556
-0.64827204 -0.11698079 1.0078682
-0.57328206 -0.12378168 1.0298448
-0.62746739 -0.072547048 1.0313866
-0.55546951 -0.095519826 1.0294785
-0.6237672 0.028003598 1.0215338
-0.7263481 -0.008050777 1.0099506
-0.070128202 -0.60070312 1.0158288
0.12156793 -0.57907736 1.0207998
0.16504879 -0.46644217 1.0303315
0.084355325 -0.42725065 1.0091743
0.12296925 -0.41841662 1.0268586
0.127873 -0.52047139 1.0211226
0.3824811 0.37877774 1.0218961
0.27667832 0.42352903 1.0312344
0.28062144 0.47880057 1.0162842
0.23024903 0.26629049 1.0268916
0.27467129 0.1818234 1.0198017
0.57689595 0.22309288 1.0271909
0.62603092 0.12757723 1.0248988
0.64631319 0.075482108 1.0295103
0.50916862 -0.024653882 1.0327592
0.52223843 -0.077453792 1.0305135
0.37623355 -0.069660231 1.0257361
0.37709764 -0.12718746 1.0247203
0.42694303 -0.13002849 1.0217905
0.46932375 -0.024091065 1.0294616
0.47960466 0.025419842 1.0300775
0.44289622 -0.029536594 1.029518
0.42421001 -0.18701416 1.0272787
0.27623197 -0.32781968 1.0258291
0.28259939 -0.12004077 1.0307155
0.82446957 -0.32476717 1.0287949
0.48265862 0.48190641 1.0207922
0.2391611 0.092580542 1.0132847
0.14966413 0.13953269 1.0261674
0.77873373 0.027903279 1.0248277
0.71831733 0.093040779 1.0291222
0.57531691 0.11872876 1.0132108
0.51681155 0.077278934 1.020331
0.57532674 0.043184984 1.0174824
0.77332509 0.26850772 1.0254195
0.57183522 0.37231988 1.0200694
0.57343447 0.32617882 1.0312215
0.61978316 0.27372429 1.0235848
0.74590862 0.35941193 1.0080805
0.6321128 0.32984161 1.0259829
0.67302722 0.31642589 1.0287169
0.57944614 0.56682497 1.0172696
0.52574742 0.56617206 1.0331026
0.52922708 0.5540514 1.0198377
0.86925584 0.87823313 1.019377
0.97563601 0.77747935 1.0284438
0.92054033 0.9297117 1.0251234
0.91827703 0.67315334 1.0313271
0.87092078 0.72239643 1.0283425
0.7261939 0.66567105 1.0280561
0.72388142 0.6254096 1.0309238
0.78102368 0.66814911 1.0276835
0.75495911 0.71345192 1.0256555
0.30559364 0.629255 1.0226855
0.32695132 0.67190522 1.0234953
0.1645236 0.57138419 1.0289189
0.48678368 0.56487203 1.0199015
0.61973786 0.97441626 1.0291166
0.62279063 0.82541615 1.0238665
0.52228814 0.72689855 1.024444
0.92237246 0.4700532 1.0267115
0.83057892 0.02615444 1.0223469
0.77372086 -0.07771574 1.0218128
0.67261273 -0.2730929 1.0198478
0.92062962 -0.26818484 1.0227251
0.8774386 -0.23202747 1.0301006
0.63000524 0.36478728 1.0367687
0.57555151 0.42306209 1.0271025
0.77684641 0.37339285 1.0231917
0.71861368 0.37328658 1.0197586
0.67653912 0.47509119 1.0232594
0.82586861 0.16520639 1.0308074
0.7731477 0.22261469 1.0207139
0.92264092 0.16462156 1.0279899
0.92931855 0.29530969 1.0169034
0.51263201 -0.28703284 1.0230366
0.47943279 -0.13070413 1.0220721
0.56964481 -0.034612536 1.0178103
0.57319736 0.021174034 1.024467
0.11699407 0.51815856 1.0229905
0.87668806 -0.07749404 1.0210431
0.72694921 0.5680486 1.0261757
0.52653819 0.47734106 1.0356172
0.47571692 0.56498271 1.0317605
0.6271804 0.52151924 1.0259875
-0.074935988 -0.82896638 1.0247425
-0.13047262 -0.83259791 1.0270911
-0.022448976 -0.774158 1.0221076
0.7267108 -0.8705101 1.0207349
0.81961673 -0.87376642 1.0201727
0.77060992 -0.92714179 1.0275872
0.77484614 -0.87566048 1.0278435
0.88082564 -0.82558268 1.0305357
0.82165492 -0.82339841 1.0188893
0.77920002 -0.97688967 1.0290158
0.96893036 -0.94030064 1.0255115
0.92767936 -0.018464852 1.0240296
0.61653537 -0.77221394 1.0304136
0.68479037 -0.7815752 1.0324869
0.67763627 -0.73015368 1.0270841
0.42164871 -0.72432542 1.0255613
0.79430735 -0.743586 1.027253
0.26231259 -0.91978085 1.03464
0.27813587 -0.87219846 1.0295529
0.36995378 -0.92484194 1.0291222
0.67344838 -0.67405808 1.0273495
0.87183255 -0.41891861 1.0239354
0.87993765 -0.47624311 1.0229049
0.92109567 -0.53122431 1.0187192
0.87250012 -0.52310818 1.0255784
0.72559726 -0.47135851 1.02597
0.67362213 -0.52744335 1.0268668
0.62274718 -0.62448883 1.016428
0.72692114 -0.6203326 1.0218352
0.92816389 -0.42302221 1.0272332
0.92601532 -0.68072271 1.0249031
0.97338343 -0.7746231 1.0266764
0.92082649 -0.72847587 1.0211579
0.86442059 -0.68405932 1.0241035
0.91837305 -0.62184149 1.0305399
0.47193214 -0.97455913 1.0282822
0.87853938 -0.91905296 1.0261893
0.49478552 -0.63380682 1.0099796
0.47134024 -0.52765131 1.0224627
0.53566021 -0.93174446 1.0287702
0.076688915 -0.97103781 1.0250407
-0.22540912 -0.82102776 1.0294114
-0.27289504 -0.82996529 1.026845
-0.21709543 -0.87376422 1.0203909
-0.16905162 -0.9317826 1.0250844
-0.22282335 -0.92657912 1.0201061
-0.22095422 -0.96844167 1.0227835
-0.32316419 -0.92058182 1.0229232
-0.92383116 -0.91860044 1.0194778
-0.82777995 -0.97317064 1.0254958
0.87503904 0.57209349 1.0221167
0.78539932 0.47553176 1.0186559
0.76831001 0.56899792 1.0207789
0.026915491 -0.6644218 1.0247455
0.36712694 -0.77820778 1.0259948
0.22258113 -0.9730621 1.0247427
0.28054959 -0.82494944 1.023674
-0.82476115 -0.079421088 1.0276606
-0.77556008 -0.07612782 1.0246803
-0.77838486 -0.027192496 1.0219636
-0.72213161 -0.039541557 1.012019
-0.71983206 -0.12082922 1.019533
-0.72724879 -0.025672436 1.0299851
-0.92913604 -0.12971997 1.0157207
-0.92884445 -0.033293057 1.0190772
-0.83063585 -0.17549914 1.0281736
-0.67034221 -0.2715252 1.0280691
-0.72406745 -0.21460818 1.0272146
-0.67498606 -0.22418952 1.0196548
-0.72229844 -0.27804992 1.0229378
-0.97730196 -0.22456102 1.0330863
-0.67378539 -0.37205702 1.0317061
-0.61451179 -0.44515693 1.0294256
-0.61126846 -0.29011309 1.0421966
-0.67199725 -0.33003652 1.0228184
-0.66754067 -0.57254463 1.0311222
-0.58432543 -0.59203243 1.0398614
-0.86942649 -0.73371708 1.0191597
-0.58058286 -0.23025648 1.0212915
-0.87038934 -0.77706581 1.0304831
-0.93105757 -0.67945856 1.0268401
-0.88009202 -0.61931497 1.0292172
-0.97358149 -0.66630054 1.0231783
-0.82721674 -0.5728668 1.0251179
-0.83370489 -0.47410375 1.0359403
-0.88082886 -0.52190846 1.0278175
-0.47536129 -0.31102908 1.0384023
-0.52269286 -0.17242852 1.0266144
-0.47363517 -0.22552352 1.0170909
-0.42849791 -0.26721105 1.0274887
-0.42624786 -0.22922421 1.0213877
-0.41725665 -0.18200755 1.0222976
-0.37357125 -0.27801156 1.0283867
-0.41659638 -0.076281205 1.0080431
-0.27803144 -0.25504646 1.0060101
-0.37195146 -0.084636211 1.0243665
-0.25193456 -0.031468272 1.0377865
-0.37602028 0.022052288 1.0235264
-0.5236851 -0.023867166 1.0292288
-0.71928775 0.12483316 1.029617
-0.6738199 0.17860484 1.0312787
0.29126883 0.22041512 1.0359578
0.20881391 0.17193216 1.037943
-0.07355845 0.170643 1.0294452
-0.2266359 0.084078506 1.0416026
-0.056453716 0.042386062 1.0406709
-0.66780502 -0.076402523 1.0290822
-0.77540922 -0.23274033 1.0189077
-0.7761212 -0.82075065 1.0337396
-0.78250998 -0.76887542 1.0190966
-0.17340861 -0.67678547 1.0256943
-0.17666154 -0.6251815 1.0201796
-0.28008506 -0.66977501 1.0322808
-0.41714606 -0.67367023 1.0357935
-0.31615645 -0.76773453 1.0323801
-0.5232532 -0.72944671 1.0290653
-0.22137144 -0.58469486 1.0278112
-0.55893862 0.56423008 1.0358115
-0.51846343 0.67950034 1.040651
-0.45616174 0.54217684 1.0365872
-0.53257638 0.57529765 1.0201746
-0.45466033 0.42201072 1.0382588
-0.72562242 0.8289997 1.0319422
-0.52885133 0.9283368 1.0296406
-0.57268506 0.91631955 1.0230393
-0.52189839 0.88024783 1.0291592
-0.48127967 0.8755855 1.0196497
-0.48321548 0.92602444 1.0296187
-0.27475676 0.87047309 1.0344906
-0.28369683 0.92484385 1.0280237
-0.44123444 0.9663288 1.0332826
-0.47945386 0.97491503 1.0303633
-0.6159606 0.81501317 1.0375624
-0.42986709 0.9290446 1.0197253
-0.20561235 0.89088589 1.0306444
-0.17104237 0.8213135 1.0275551
-0.32143599 0.61667526 1.0260457
-0.37926158 0.72596884 1.0344497
-0.23040171 0.63181001 1.0421929
-0.21878242 0.63303924 1.0270636
-0.32629582 0.72510535 1.0180507
-0.27236757 0.76129448 1.0210176
-0.095811285 0.57290614 1.0234234
-0.078891724 0.52334082 1.0244493
-0.98064917 0.43073162 1.0215299
-0.97910619 0.32210255 1.0259266
-0.93119013 0.42958131 1.0308712
-0.97416347 0.36863917 1.0214704
-0.81946099 -0.021552643 1.0373864
-0.07316719 0.9312793 1.0207669
-0.03373133 0.874282 1.021646
-0.069543064 0.82538205 1.0265932
-0.024561014 0.76995021 1.0208908
-0.11571074 0.79908752 1.015893
-0.97187424 -0.019447803 1.0213639
-0.97607774 -0.069580793 1.0212209
-0.88142806 0.17027137 1.0213046
-0.9824003 0.2245363 1.0240442
-0.87523985 0.27928329 1.0261343
-0.87287265 0.92071408 1.0211442
-0.77832705 0.73030025 1.011969
-0.97667944 0.47504559 1.0216123
-0.97316772 0.51994622 1.0250416
0.12051924 0.77892411 1.0198578
0.072188772 0.77434433 1.0279938
0.031788826 0.77289468 1.0219582
-0.42071557 0.97852498 1.023149
-0.37603492 0.97276092 1.0250862
-0.57579112 0.97475594 1.022738
-0.72387451 0.92696846 1.0250273
-0.62830824 0.97860241 1.021425
-0.64284158 0.88892198 1.0284965
0.35027733 0.76148093 1.0273904
0.42986369 0.88344449 1.0302309
0.026515326 0.63490981 1.021149
0.37916759 -0.52554148 1.0274
0.42640203 -0.42414063 1.0244154
0.61673558 -0.53389037 1.0225387
0.6157642 -0.57858741 1.0231042
0.52887106 -0.42375916 1.026667
0.70972151 -0.41088519 1.0252651
0.56581175 -0.37749264 1.0295041
0.17374684 -0.72264832 1.0299733
0.2226458 -0.72501761 1.0214165
0.1282444 -0.63095027 1.0282316
0.21891791 -0.57262504 1.0148052
0.18482305 -0.82626396 1.0220116
-0.52927941 -0.068591036 1.0197453
-0.49119651 0.03464561 1.0122074
-0.53444576 0.049349777 1.0157421
-0.57247913 -0.27171507 1.0257946
-0.62514353 -0.22587773 1.026363
-0.37913749 -0.32206661 1.0218195
0.071904898 -0.52461833 1.0192196
-0.021807671 -0.42988762 1.0352223
-0.07853017 -0.42275611 1.0294207
-0.078529835 -0.52502084 1.0301714
-0.023941629 -0.62603486 1.025913
-0.017972074 -0.56660193 1.0220549
0.13395894 -0.37340972 1.0294734
0.072994061 -0.37375817 1.0229139
0.15579838 -0.36789128 1.0217859
0.13161032 -0.47574729 1.0264596
0.32280606 0.37077975 1.0224712
0.22759831 0.36741567 1.0269836
0.23168127 0.47089809 1.0236299
0.2163454 0.22261469 1.023963
0.073279858 0.42036167 1.0273422
0.13798746 0.28581366 1.0167034
0.028273663 0.3276853 1.0146141
0.12434084 0.17748006 1.0251665
0.48184958 0.072485976 1.0286392
0.5270161 0.1272077 1.0267997
0.52119535 0.21699116 1.0195885
0.63119757 0.1798812 1.0248829
0.64953583 0.022220705 1.029207
0.63164937 0.069528744 1.0281639
0.44443339 0.1590191 1.0392861
0.3626152 0.05982025 1.0202817
0.56659663 0.071247995 1.0277927
0.4197076 0.054088101 1.016021
0.37923715 -0.021070624 1.0257041
0.22082222 -0.37528536 1.0181952
0.024789056 -0.37996912 1.0285189
0.038262263 -0.42170778 1.0291106
-0.018615067 -0.37835544 1.0220908
0.77454519 -0.026083257 1.0289366
0.72102249 0.07891646 1.0246921
0.82657284 0.11445211 1.029928
0.69724882 0.14619838 1.010496
0.82651061 0.27501661 1.0241512
0.66755611 0.27369368 1.0320374
0.58586311 0.28061619 1.0289558
0.54096496 0.60843831 1.0246242
0.82198924 0.79528004 1.0240297
0.87475795 0.66754425 1.0220013
0.82916367 0.68019402 1.0238559
0.1730355 0.62628216 1.0284879
0.52624714 0.52865195 1.0289078
0.66915649 0.83077186 1.019914
0.50600541 0.73634034 1.0344678
0.52118057 0.66585577 1.0324969
0.87338179 0.41805512 1.023946
0.72328597 -0.12932543 1.0209134
0.76418936 -0.12603611 1.0267792
0.67433172 -0.22974458 1.0271962
0.67926449 -0.32289007 1.0280737
0.76874441 -0.27848446 1.0283419
0.9275974 -0.2229224 1.0272778
0.87739915 -0.12650168 1.0275226
0.82858133 -0.22752646 1.0240456
0.72501099 0.3245748 1.0244514
0.77669483 0.17806883 1.0264467
0.79645544 0.11749359 1.0239462
0.87218285 0.21720672 1.029941
0.92524701 0.2761673 1.0283476
0.97795409 0.27973247 1.026324
0.88171554 0.32217798 1.0253185
0.53173792 -0.1827762 1.0275295
0.56375968 -0.17128646 1.0262189
0.57493949 -0.17573361 1.0173805
0.62424672 -0.17081872 1.0271461
0.5255996 -0.027473841 1.0219308
-0.020983815 0.47287214 1.0242226
-0.023852348 0.42727122 1.0221236
0.048140801 0.52158946 1.0114646
0.12177981 0.42180654 1.0208282
0.022084555 0.47594309 1.0243841
0.12098984 0.47865891 1.0247364
0.83477455 -0.12431236 1.0248804
0.67607844 0.57965964 1.0194252
0.55788469 0.46821281 1.0203155
0.47469151 0.52291918 1.0214219
0.42664918 0.57270098 1.0200897
0.53244066 0.32251853 1.0194858
-0.095258974 -0.88158226 1.0201955
0.027202353 -0.8239339 1.0264801
0.68040043 -0.88117707 1.029905
0.876252 -0.7791931 1.0279707
0.88877165 -0.75879592 1.0059863
0.57981485 -0.71505839 1.0285778
0.36893481 -0.67820817 1.0203128
0.37379056 -0.62223864 1.0320208
0.7725566 -0.71826643 1.0240074
0.88787508 -0.68074846 1.0135301
0.77930999 -0.77647209 1.0227838
0.21691851 -0.8241443 1.0279337
0.33051682 -0.92045951 1.0326484
0.61826491 -0.73061001 1.0263186
0.82049531 -0.42395854 1.029212
0.8218019 -0.53011334 1.025686
0.77056628 -0.53517568 1.0218344
0.82436687 -0.57415575 1.0234965
0.72595686 -0.51704562 1.0208343
0.72750819 -0.56899339 1.0109963
0.60898626 -0.50137317 1.0187299
0.62061244 -0.47165826 1.0225652
0.97585505 -0.62764961 1.0199783
0.84220183 -0.57278132 1.0339459
0.9228344 -0.77173167 1.0170022
0.88701355 -0.70477551 1.0161705
0.7194609 -0.92999148 1.01994
0.72270232 -0.974958 1.0209919
0.82166803 -0.9228543 1.02388
0.87368953 -0.87945127 1.0245417
0.47476667 -0.67472047 1.0255572
0.61925542 -0.96900463 1.0281876
-0.17271759 -0.82281643 1.0222944
-0.26448771 -0.86698008 1.0379615
-0.26894146 -0.87267894 1.0284247
-0.3180657 -0.97907239 1.0206889
-0.32630697 -0.82278484 1.0234067
0.82359529 0.5807777 1.0244012
0.93587577 0.57592249 1.0248752
0.021453314 -0.72543508 1.0228533
0.37507772 -0.73475683 1.0233723
0.37128609 -0.82396251 1.0192682
-0.86848259 -0.21901426 1.0251703
-0.8240304 -0.22547606 1.0185728
-0.92460632 -0.077837072 1.0212432
-0.82352448 -0.12663837 1.0262231
-0.97583008 -0.58131397 1.0255375
-0.93074346 -0.42285356 1.0310413
-0.97202969 -0.2691198 1.0231061
-0.91863787 -0.33382836 1.031227
-0.97576904 -0.3762165 1.0235919
-0.88363612 -0.42405853 1.0259854
-0.92637002 -0.46817341 1.0249069
-0.52607441 -0.35619226 1.0214247
-0.52809858 -0.32424751 1.0238209
-0.47222564 -0.3240808 1.0260944
-0.47201958 -0.27683949 1.024325
-0.55830187 -0.42478383 1.0293741
-0.58020455 -0.37299231 1.0237374
-0.10743374 -0.30623537 1.0402328
-0.2328435 -0.16455728 1.0381656
-0.22329235 -0.30217701 1.0340344
-0.36924386 -0.13225542 1.0282825
-0.52825302 -0.12259375 1.0292953
-0.18101342 0.50191623 1.0392073
-0.081440963 0.3715806 1.0193088
-0.36577448 -0.020126343 1.0146713
-0.42453781 -0.024036959 1.0202984
-0.36048481 -0.031749915 1.0141752
-0.27946001 0.027110191 1.0257061
-0.27415431 0.076017797 1.019333
-0.32535589 0.074849002 1.0249648
-0.3264448 0.02598834 1.0265324
-0.41898465 0.14215815 1.0353918
-0.48354742 0.026449634 1.029654
0.27876461 0.26890075 1.0279477
0.12920666 0.21555591 1.0324231
0.077137299 0.17998232 1.0226142
-0.026618958 0.37770581 1.0304173
0.081691884 0.37281051 1.0251281
-0.02079225 0.26710483 1.0395035
-0.075583361 0.32624111 1.0202785
-0.021065872 0.28454018 1.0283263
0.16151914 -0.082664013 1.0110404
0.22169247 -0.22687531 1.0174173
0.18665728 0.03999031 1.0317355
-0.67605567 -0.17622887 1.0299971
-0.77564168 -0.18188125 1.0225983
-0.63064349 -0.82118469 1.0287547
-0.68298399 -0.7109763 1.0327858
-0.62768638 -0.78332716 1.0286897
-0.750633 -0.76925969 1.0138062
-0.1277595 -0.62668878 1.0242453
-0.17559004 -0.62825221 1.0179596
-0.52377695 -0.82090384 1.0305067
-0.12491914 -0.46773949 1.0153049
-0.12583196 -0.52589226 1.027348
-0.12231288 -0.42773017 1.0250214
-0.17502472 -0.46785823 1.0246533
-0.17125168 -0.37840921 1.0213416
-0.2795926 -0.72513533 1.0125906
-0.21885826 -0.67859966 1.0249357
-0.23790912 -0.41986093 1.0300299
-0.24271883 -0.33182541 1.0317377
-0.57396728 0.6200434 1.0258487
-0.76655215 0.69551331 1.0317922
-0.87076163 0.72508597 1.0288663
-0.65769464 0.74851656 1.0276867
-0.62458402 0.87992811 1.0296247
-0.52354014 0.97409207 1.0261021
-0.22600555 0.92513549 1.0178424
-0.32621536 0.88098609 1.0186297
-0.32745677 0.81462443 1.0147332
-0.12637171 0.72358572 1.0315382
-0.21830623 0.777628 1.0237144
-0.32529497 0.76629132 1.0134525
-0.27336809 0.82773626 1.0244731
-0.26446643 0.72999096 1.0268865
-0.37466422 0.6769011 1.0260049
-0.22385404 0.57480472 1.0254622
-0.87952137 0.43300247 1.0310705
-0.97019434 0.56699747 1.0270183
-0.92781705 0.076467782 1.0163226
-0.86865401 0.067947492 1.022848
-0.82901883 0.019610515 1.0223863
-0.060746599 0.73972601 1.0240537
-0.93185151 0.37260491 1.0199181
-0.62052339 0.92244309 1.021993
-0.5753361 0.77398276 1.0223976
-0.62967747 0.73164833 1.0190586
-0.42992568 0.57996833 1.0235296
-0.48187745 0.47739568 1.0089194
-0.52677327 0.46408251 1.0046073
-0.47750187 0.62629139 1.0137088
-0.52508062 0.67285401 1.0285418
-0.47920418 0.67118818 1.0192227
0.078297071 -0.34203884 1.0173137
0.12619066 -0.27209252 1.0215254
-0.12737262 -0.40214738 1.0244696
-0.66763544 0.82004511 1.0170037
-0.82053059 0.92375547 1.0252451
0.32425514 -0.5313713 1.0248297
0.42163154 -0.46980804 1.0256364
0.56037205 -0.62165874 1.0201563
0.12628457 -0.67806655 1.0306778
0.23450631 -0.62814885 1.022342
0.17590512 -0.57085401 1.0291251
0.32834408 -0.56902421 1.0203326
0.12799153 -0.88117653 1.025005
0.17044251 -0.7701177 1.0274777
-0.82456005 0.22751401 1.0231034
-0.76658738 0.14401186 1.0196649
-0.71591485 0.21619876 1.0150291
-0.57344908 -0.029459272 1.0238541
-0.50436717 -0.25158769 1.0246998
-0.61624634 -0.124584 1.01908
0.07235568 -0.58539307 1.0244182
0.034118842 -0.45595786 1.0267571
-0.082850218 -0.48094654 1.0209317
-0.025861707 -0.5193454 1.0204394
0.27038988 0.37420917 1.0193753
0.020776689 0.2739287 1.0199038
-0.27872261 -0.072708607 1.0273873
-0.21814969 -0.075949878 1.0189704
-0.26471806 -0.19437093 1.0180659
-0.028157432 0.073632479 1.0206714
0.023315867 -0.02438426 1.0217166
0.022879908 0.070281476 1.0222048
0.073173568 0.079156324 1.0280774
0.023648687 0.12781496 1.0220716
0.10951185 0.16615605 1.0223821
0.32663307 0.067338809 1.0266484
0.52414685 0.17330393 1.0236449
0.67427558 0.17173898 1.0246384
0.22196329 -0.32907599 1.0217791
0.16805808 -0.27553061 1.0196645
0.32402468 -0.32533789 1.0182208
0.17680837 -0.22287858 1.0206771
0.074776039 -0.42969468 1.0158072
0.77823317 0.078058317 1.029085
0.67204469 0.072153866 1.0242096
0.83402389 0.12400576 1.0297118
0.76497114 0.11899388 1.0172839
0.60852611 0.11990371 1.0168102
0.61749005 0.22847891 1.0189822
0.71607965 0.27221805 1.0212449
0.82760423 0.77754301 1.0249556
0.67242014 0.76814747 1.0206797
0.72369641 0.82485557 1.0231907
0.47353861 0.73057699 1.0245768
0.57142049 0.66502708 1.0249043
0.82084125 0.42677933 1.0280577
0.96796495 0.38042516 1.0268104
0.65287459 -0.15307567 1.0277824
0.77648324 -0.22667304 1.0248479
0.66588479 -0.27049896 1.0262856
0.82377702 -0.17757045 1.0273554
0.97354031 0.32223222 1.0270226
0.92630178 0.32646614 1.0216482
0.57348061 -0.13312203 1.0277002
0.421422 -0.029434394 1.0203635
-0.014536613 0.48562181 1.0268078
0.026093552 0.42881697 1.0235242
0.061507829 0.47503173 1.02082
0.6238324 -0.68043464 1.0220561
0.4208827 -0.68399203 1.0201054
0.77863723 -0.8155691 1.0156481
0.82902706 -0.47777507 1.0243406
0.77665651 -0.62714416 1.0250984
0.52801263 -0.52653986 1.0145664
0.56535101 -0.42330369 1.0297146
0.62596095 -0.42765233 1.0180018
0.97707719 -0.47316587 1.0271916
0.96859628 -0.53359884 1.0226963
0.9203968 -0.57322687 1.0204083
0.8272261 -0.62598211 1.0249628
0.82755059 -0.97385585 1.0243777
0.92108709 -0.82515574 1.0257448
0.92758912 -0.87684029 1.0251071
0.47356752 -0.62433076 1.025624
0.52161264 -0.63214368 1.0271463
0.52594417 -0.72111768 1.0242027
0.67889369 -0.96982563 1.0263603
-0.31942472 -0.87646073 1.0296901
-0.27650523 -0.92652571 1.021668
0.31585637 -0.72494555 1.0210581
-0.91592407 -0.17734139 1.0267727
-0.8747983 -0.26477146 1.0292679
-0.76965332 -0.27867159 1.0283251
-0.77349502 -0.31838715 1.0207758
-0.82179129 -0.28267145 1.0276847
-0.87783337 -0.3201828 1.0181959
-0.71718234 -0.32680193 1.0166343
-0.55363601 -0.41140977 1.0097637
-0.97443247 -0.42312953 1.0260133
-0.97354394 -0.47672582 1.0186908
-0.96535909 -0.62578213 1.0237877
-0.9230268 -0.57082963 1.0251868
-0.72137427 -0.4265587 1.024615
-0.773992 -0.46750426 1.0208182
-0.72782975 -0.63290554 1.025406
-0.72132194 -0.5758239 1.0229399
-0.77596092 -0.57385921 1.0256656
-0.77928215 -0.52691627 1.0240899
-0.67364186 -0.67575443 1.023332
-0.61979288 -0.62566954 1.0238839
-0.72857457 -0.7265324 1.0309345
-0.77230728 -0.63169974 1.0201085
-0.64411724 -0.42406902 1.0245206
-0.59778112 -0.46140423 1.0248642
-0.61773962 -0.27662984 1.0308722
-0.57770896 -0.31931907 1.0258718
-0.42946297 -0.37325376 1.0263659
-0.57957923 -0.471349 1.0249957
-0.52136254 -0.47274861 1.0187105
-0.57822591 -0.57963395 1.0260246
0.078180537 -0.3277908 1.0317932
0.074836813 -0.24932866 1.0321693
0.029731672 -0.17472062 1.0368825
0.082658008 -0.077684596 1.0295342
-0.12281147 -0.12093115 1.0316588
-0.27497959 -0.27776927 1.0246302
-0.22461511 -0.27632776 1.0231456
-0.27004218 -0.32336852 1.0171859
-0.35166332 -0.23031287 1.0221952
-0.32173005 -0.18016912 1.0204022
-0.28655863 -0.12689705 1.0272502
-0.47210413 -0.074139848 1.0220108
-0.47784325 -0.12637578 1.0257138
-0.27192912 0.37597242 1.0282823
-0.18225485 0.36655661 1.0341308
-0.3796466 0.4198252 1.0289372
-0.32675654 0.42196742 1.0257902
-0.23161286 0.42527664 1.0247638
-0.17428303 0.57587183 1.0313076
-0.14341307 0.41853818 1.0319626
-0.37662527 0.32018742 1.0220026
-0.32149881 0.27912515 1.0197319
-0.33637211 0.2192951 1.0138958
-0.47513318 0.37541658 1.022211
-0.41832042 0.38358566 1.0065464
-0.47384435 0.26565608 1.0278009
-0.32197464 0.21913862 1.0380182
-0.72476095 0.21926662 1.0296867
-0.67230988 0.32441154 1.0267936
-0.77291316 0.32369509 1.0273753
-0.67613184 0.47380739 1.0421401
-0.17534882 0.3258481 1.0343018
-0.62515742 0.077193514 1.0294794
-0.3284559 0.12350468 1.0270162
-0.31982568 0.17469056 1.0265462
-0.37566525 0.07957907 1.0249512
-0.3274644 0.06584733 1.0156852
-0.48963416 0.11878136 1.0162284
-0.024549417 -0.023024015 1.0311692
0.022377286 0.18438745 1.0333649
-0.006662677 0.17458922 1.0287886
0.020832682 0.2260396 1.0283558
0.15258241 0.33491042 1.0293316
0.22966991 -0.12362266 1.0168792
0.33018482 -0.22710916 1.0269421
0.18148878 0.020243058 1.0211997
0.26986423 -0.021292415 1.0223627
-0.65986532 -0.13616197 1.0184562
-0.87306416 -0.67543423 1.0285794
-0.64899129 -0.70782799 1.0324347
-0.57261992 -0.6758008 1.0233904
-0.68172538 -0.77037126 1.0238453
-0.35626256 -0.66262293 1.0124924
-0.42064121 -0.57469374 1.0278511
-0.47429538 -0.62415433 1.0225557
-0.42227113 -0.6830802 1.0179224
-0.23589604 -0.51792622 1.0192561
-0.27304423 -0.569565 1.0267776
-0.52788275 -0.67624331 1.0232365
-0.52520531 -0.7720353 1.0289177
-0.52334481 -0.87667751 1.0206971
-0.47298995 -0.82975417 1.022804
-0.12340694 -0.57563132 1.0296735
-0.17272946 -0.33067375 1.0259125
-0.67012179 0.57506728 1.0313163
-0.63143867 0.57108599 1.0276674
-0.77178335 0.57152593 1.029011
-0.73010743 0.52420479 1.0226467
-0.48363444 0.52339238 1.0299264
-0.57505476 0.57097149 1.0309871
-0.62562281 0.47693557 1.0284151
-0.55254114 0.49122024 1.0299703
-0.87312162 0.77445006 1.0252818
-0.81056273 0.67879277 1.0199356
-0.82706237 0.72969329 1.0202413
-0.67506921 0.72728688 1.0248001
-0.73845899 0.76919335 1.0260028
-0.91689217 0.67463684 1.0264969
-0.9341352 0.62332916 1.0233439
-0.28353554 0.84057367 1.0202695
-0.22274284 0.86953866 1.0228409
-0.2298623 0.81819165 1.0162731
-0.43551192 0.80470711 1.0218928
-0.52728063 0.77512592 1.0308458
-0.41956824 0.87319577 1.0289025
-0.32532886 0.8431344 1.0245975
-0.37497205 0.82954776 1.0291957
-0.22343712 0.67481393 1.0322894
-0.42666671 0.47567436 1.0249242
-0.33394781 0.48058748 1.0233549
-0.42520323 0.42145559 1.0292753
-0.47877157 0.4722296 1.0213495
-0.42241341 0.71433479 1.0207653
-0.27719936 0.47867155 1.016812
-0.81333435 0.27963862 1.0177882
-0.98000753 0.021952868 1.0204827
-0.93039215 0.026718821 1.0243343
-0.82864153 0.063417636 1.0302032
-0.027678382 0.72913772 1.0254602
-0.082277112 0.77843684 1.0276968
-0.66859633 0.67522556 1.0148803
0.015308738 -0.12704962 1.022035
-0.024082765 -0.1231772 1.0266832
-0.024709463 -0.17874557 1.0119197
-0.13412687 -0.3681674 1.024981
-0.56717992 0.72656238 1.011423
-0.47088745 0.71962893 1.0261016
-0.57388771 0.87442052 1.0262631
-0.67187095 0.77508116 1.0275286
0.37823653 -0.47216544 1.020882
0.12489761 -0.72253394 1.0205848
-0.77567482 0.021408906 1.0240949
-0.72165775 0.0028986931 1.0126865
-0.84203178 0.092336491 1.0219979
-0.77393699 0.18107194 1.0206486
-0.52989352 -0.27337307 1.022524
0.023748672 -0.57564223 1.0267352
0.075377703 -0.47710395 1.021461
-0.072008215 -0.58156222 1.0197253
-0.026061796 -0.46688557 1.0229561
0.10181522 0.39000532 1.0208588
0.13178702 0.3810958 1.0226249
0.18908679 0.42485568 1.0342205
-0.16848312 -0.069219112 1.0248355
-0.17695394 -0.12166823 1.019022
-0.2772232 -0.021257879 1.0259138
-0.22647268 0.044461574 1.0207441
-0.12884468 0.073105067 1.0158868
-0.025231101 0.12562302 1.0238104
-0.084718809 0.079059601 1.0243202
-0.12463702 0.17032111 1.0218484
0.27085343 0.12811828 1.0223541
0.17417865 -0.3750751 1.0215014
0.26766616 -0.27567998 1.0244085
0.32245609 -0.18046336 1.0336136
0.42504877 -0.22721864 1.0223671
0.37593481 -0.22805837 1.0219108
0.3847788 -0.27038163 1.0249546
0.16826609 -0.22303373 1.0224448
0.68465143 0.67578876 1.0194643
0.62234944 0.77265567 1.0318924
0.62416041 0.63162702 1.030547
0.85306895 0.41969904 1.0255502
0.72388899 -0.22025669 1.0219467
0.72262907 -0.17557816 1.0268037
0.70047426 -0.28826535 1.0206857
0.52583587 -0.677145 1.017424
0.47444206 -0.71785504 1.020672
0.73539382 -0.82368016 1.0198898
0.70363706 -0.72236246 1.0116721
0.7664023 -0.47501689 1.0287961
0.77207559 -0.57833594 1.0226333
0.57946813 -0.52044553 1.0281663
0.62523335 -0.4287101 1.0226629
0.97363138 -0.56963199 1.0196024
0.86445636 -0.67551422 1.0235169
0.77380151 -0.67258751 1.0242192
0.87845457 -0.97221726 1.0241282
0.67975235 -0.93185842 1.0257196
-0.42097509 -0.8210752 1.0257461
-0.92545801 -0.27365285 1.0250167
-0.86452138 -0.36998904 1.0341529
-0.92828763 -0.37012717 1.0276221
-0.82767659 -0.27944842 1.0236853
-0.83278382 -0.51732415 1.0197203
-0.92165601 -0.62384385 1.0260543
-0.91487259 -0.53072029 1.017212
-0.97149456 -0.5185442 1.0193019
-0.71517783 -0.47523203 1.0246866
-0.61331689 -0.35944128 1.0251334
-0.57780212 -0.62792677 1.0251998
-0.62591839 -0.58246583 1.0199045
-0.47500604 -0.37066045 1.0242529
-0.37705791 -0.57684648 1.0325887
-0.47631678 -0.58525789 1.0319415
-0.36933851 -0.61652362 1.029031
-0.43886217 -0.47189075 1.0420792
-0.016885579 -0.32397127 1.0191354
0.076199025 -0.27135858 1.0231146
0.026422841 -0.27836791 1.0311251
-0.071045108 -0.12821734 1.0304044
-0.066698983 -0.091921948 1.0318582
-0.081262536 -0.031536262 1.0345832
-0.12611854 -0.23783571 1.0285556
-0.32807532 -0.082698978 1.0248806
-0.27585405 -0.22654173 1.0293906
-0.27034527 -0.1742405 1.0327346
-0.43337077 -0.080592334 1.0271251
-0.47238964 -0.017655157 1.0288887
-0.33285385 0.31697509 1.0268456
-0.13419205 0.43158817 1.029681
-0.17744184 0.42289382 1.0240866
-0.33517998 0.39737612 1.0212901
-0.43292725 0.3732816 1.0279911
-0.53001738 0.32574871 1.0230318
-0.37085843 0.27324843 1.0232056
-0.89822793 0.34445041 1.0303015
-0.82608175 0.37334234 1.027613
-0.78565997 0.43286002 1.0332257
-0.12941226 0.22794037 1.0281327
-0.12396575 0.27000618 1.0286194
-0.2197894 0.23463954 1.0308006
-0.12616271 0.37455273 1.0278867
-0.68002546 0.11865646 1.0294424
-0.71694273 0.07685031 1.0314155
-0.51769704 0.070893869 1.0271945
-0.67216033 0.024420435 1.0282575
-0.61372578 0.1211675 1.0192388
-0.57203352 0.025473412 1.0227482
-0.37774995 0.12529545 1.023617
-0.41981068 0.074667171 1.0238203
-0.02457336 0.027061736 1.0245626
0.12231808 0.12411427 1.0255374
0.17809227 0.27895021 1.0292615
0.16878781 0.32599363 1.0221368
0.11926135 0.27407065 1.024307
-0.28100583 0.12722656 1.024492
-0.26581237 0.10690825 1.0226028
-0.14939146 0.090955593 1.0294002
-0.17574131 0.082393013 1.0313781
-0.01695776 0.22129545 1.0219193
0.12371987 -0.020763099 1.0297637
0.17595921 0.072461843 1.027548
0.17780702 -0.017590681 1.0249698
0.1806424 0.026614275 1.0301723
0.22033137 -0.068718135 1.0192828
0.023081081 -0.079398669 1.025537
0.079357207 -0.13087416 1.0256969
-0.61885935 -0.17397016 1.0312812
-0.82001477 -0.6284076 1.0289806
-0.57623333 -0.7256124 1.020936
-0.71990407 -0.77879971 1.0284768
-0.34936011 -0.73079193 1.0128821
-0.22824566 -0.37926769 1.0168743
-0.21985929 -0.45389518 1.0167762
-0.16890852 -0.5181222 1.0314877
-0.23584013 -0.63663167 1.0051011
-0.4245615 -0.52368438 1.0205611
-0.46750513 -0.66907829 1.0175779
-0.22790596 -0.62189746 1.0238985
-0.78572237 0.52929634 1.0293143
-0.72788191 0.43451032 1.0226036
-0.72657281 0.47486633 1.0239559
-0.57136601 0.67908478 1.0254951
-0.72816277 0.66058254 1.0250435
-0.77826035 0.63164729 1.0232105
-0.67037237 0.62085742 1.0270671
-0.53167593 0.47748679 1.030043
-0.52485645 0.42776248 1.0269114
-0.57583612 0.37965286 1.0301278
-0.67817104 0.52408898 1.0243194
-0.67362523 0.47036201 1.026401
-0.61607563 0.37609795 1.0267465
-0.56572294 0.42740247 1.0248401
-0.77646518 0.76776356 1.0263754
-0.72837996 0.7224471 1.0253198
-0.47492972 0.77552098 1.0268024
-0.37708813 0.77042806 1.0232677
-0.32272467 0.87715232 1.0326167
-0.37203178 0.87423825 1.0248019
-0.37674874 0.5308826 1.0281929
-0.43296859 0.67428738 1.0257847
-0.22570364 0.47546017 1.0229362
-0.35154045 0.54086238 1.0242261
-0.1197079 0.57298863 1.0162964
-0.26767206 0.57653326 1.0265471
-0.22881164 0.52689672 1.018124
-0.23435755 0.50951451 1.0062236
-0.17278644 0.52986574 1.0196834
-0.77410841 0.27049983 1.0200902
-0.069006704 -0.068150394 1.0176247
-0.52320939 0.72971624 1.0297364
-0.52037954 0.80754822 1.014966
-0.50907838 0.82203722 1.0195886
-0.56993896 0.81965667 1.0283386
-0.82105017 0.070763588 1.0243522
-0.73160952 0.17447639 1.0247393
0.024927458 -0.473315 1.0210662
-0.22628938 0.02470131 1.0294784
-0.2275819 0.070732251 1.0257002
-0.21793123 0.1237793 1.0281392
0.27400547 0.076460741 1.0209521
0.17083961 -0.32207555 1.0244274
0.29784203 -0.2948845 1.0270472
0.32431185 -0.11627166 1.0307856
0.40982708 -0.24792655 1.0242074
0.17342885 -0.17239815 1.0276045
0.12483411 -0.22794351 1.0270565
0.67239147 0.72393054 1.0238041
0.65638679 0.60072446 1.0271444
0.67001086 0.61697882 1.0311487
0.77707404 -0.16728343 1.0233401
0.57505035 -0.66741812 1.0207438
0.73116654 -0.78091133 1.0229425
0.57425064 -0.47571474 1.0242982
0.92604584 -0.97226793 1.0253855
0.62414038 -0.93320215 1.0263493
-0.42394757 -0.87435496 1.0247036
-0.47362983 -0.78383303 1.0247607
-0.82507843 -0.32238284 1.0205321
-0.77139741 -0.3824622 1.0276768
-0.83422673 -0.42825496 1.0186756
-0.62243098 -0.52542853 1.0229433
-0.67203504 -0.42221749 1.0247197
-0.52746248 -0.37487838 1.0244581
-0.53144133 -0.62607503 1.0237489
-0.32746613 -0.63022888 1.0297081
-0.32184345 -0.68131566 1.0263932
-0.32377419 -0.37718526 1.0329219
0.025590461 -0.22404182 1.0175693
0.026684891 -0.31594294 1.0241327
-0.12118354 -0.023684727 1.0337108
-0.16840917 -0.18057895 1.0297719
-0.11686326 -0.17123979 1.0217948
-0.11529211 -0.22183771 1.02048
-0.36897781 -0.17288131 1.0228693
-0.4225868 -0.12482886 1.0218776
-0.46240145 -0.039642524 1.0222768
-0.22790161 0.37434834 1.0266266
-0.32220581 0.32531515 1.0230514
-0.42350647 0.28497738 1.0244001
-0.48706859 0.22700064 1.0258372
-0.48614472 0.34382248 1.0244174
-0.52340692 0.37168407 1.0270922
-0.66187775 0.2535935 1.027804
-0.87325221 0.32868254 1.0256319
-0.27018371 0.32534689 1.0255445
-0.16842717 0.16792676 1.0302181
-0.22023444 0.21818703 1.0242392
-0.17995533 0.38670796 1.0241969
-0.67840219 0.06945809 1.0285993
-0.62049043 0.17412142 1.0255586
-0.53345436 0.03643322 1.0270659
-0.37564149 0.17111754 1.0217822
-0.42122999 0.12739094 1.0235537
-0.018399246 0.0071177208 1.0266951
0.11362689 0.11241863 1.0244155
0.12354484 0.32719544 1.0229717
-0.31980705 0.11071545 1.0169408
-0.077341214 0.27809229 1.0230891
0.12419119 -0.07406 1.0205146
0.10383078 -0.070119284 1.0208364
0.084081888 0.035396874 1.031787
0.22896327 -0.098211862 1.0287138
-0.77295774 -0.72555262 1.0263325
-0.56610948 -0.82126313 1.0276216
-0.37897211 -0.77277929 1.0252285
-0.32585829 -0.72999853 1.0275671
-0.27852988 -0.47594571 1.024979
-0.48097169 -0.47612572 1.0245365
-0.27166504 -0.42433751 1.019261
-0.76880932 0.47541305 1.0175623
-0.94946688 0.53137225 1.0208967
-0.82828373 0.56468982 1.018669
-0.91952717 0.63090634 1.0197406
-0.87479836 0.67215216 1.0241508
-0.52301997 0.5229395 1.0256743
-0.70644146 0.58773392 1.0121987
-0.66399914 0.47435722 1.0378721
-0.57499641 0.42283207 1.0221485
