# .PCD v0.7 - Point Cloud Data file format
VERSION 0.7
FIELDS x y z
SIZE 4 4 4
TYPE F F F
COUNT 1 1 1
WIDTH 1430
HEIGHT 1
VIEWPOINT 0 0 0 1 0 0 0
POINTS 1430
DATA ascii
0.19739284 -0.90638709 0.91602319
0.39613613 -0.83892804 0.81462902
0.56087929 -0.82547748 0.94846833
-0.50646287 -0.88140565 0.88012314
-0.46543288 -0.86763769 0.99505329
0.17715174 -0.71256542 0.87044537
-0.62922281 -0.74254608 0.94106078
-0.52241874 -0.77049881 0.99422807
-0.4209981 -0.67918599 0.86187458
-0.25295818 -0.85117656 0.93209219
0.046752695 -0.86871034 0.97113264
0.46027541 -0.80447161 1.0012153
0.5498935 -0.80333072 0.8507607
0.52178729 -0.75467163 0.99670875
-0.71483082 -0.81155205 0.9695254
-0.56755131 -0.76808697 1.0030813
-0.39256763 -0.76849502 0.97746134
-0.2239107 -0.75234056 1.0044904
0.14278154 -0.77756923 0.98409164
0.56255811 -0.84691161 0.96271682
0.65372539 -0.81554174 0.86229885
0.69168818 -0.81689155 0.94179249
-0.75839555 -0.68254662 0.87641078
-0.75264233 -0.79354072 0.92514086
-0.32456931 -0.65990406 0.76364881
-0.30222067 -0.77397603 0.91304016
-0.1664736 -0.76868522 0.91854572
-0.034064699 -0.74884361 0.87126553
0.096072935 -0.65802956 0.95986372
0.25364792 -0.60131544 0.89235425
0.84069645 -0.72381139 0.97450101
-0.69329578 -0.60238254 0.88549143
-0.46528998 -0.68920785 0.98036331
0.16207747 -0.63022149 0.92809087
0.74395156 -0.67417914 0.97286654
-0.65815532 -0.55170983 0.92546821
-0.65482312 -0.65290397 0.9788838
-0.63270515 -0.64453346 1.0024225
-0.53006971 -0.64606911 0.93925738
0.12166116 -0.62232727 0.88966709
0.25561789 -0.67622387 0.84047216
-0.53656185 -0.51220828 0.86410874
-0.24905214 -0.5769974 0.84894627
0.15269613 -0.64234036 0.77485752
0.20365743 -0.51324499 0.80214143
0.71581858 -0.52687037 0.93807918
0.89750373 -0.44790995 0.70673263
-0.49774191 -0.37287942 0.81773806
-0.40036646 -0.54498422 0.95804811
0.40809488 0.073810756 0.23887691
0.42728412 -0.51642263 0.88488048
0.49292374 -0.43355393 0.84412682
0.58380747 -0.53361648 0.83598328
0.71046138 -0.60849893 0.87575352
0.89358121 -0.53747892 0.91985273
-0.628187 -0.45191899 1.0032793
-0.50319141 -0.51166356 0.97508508
-0.44233561 -0.43824357 0.9064914
-0.35775715 -0.4708555 0.9412787
-0.17610912 -0.46879339 0.85058731
-0.20521307 -0.45734033 0.94480944
-0.15550584 -0.40605417 0.87452126
-0.73971123 -0.50760126 0.94932133
-0.58667362 -0.47797212 0.99402767
-0.26439306 -0.38079032 0.89186877
-0.21632215 -0.43252096 1.0036643
-0.11231956 -0.46112561 0.92460394
0.31919259 -0.46059778 0.94119418
0.38484955 -0.3608326 0.82496637
0.10248818 -0.15585361 0.39079341
-0.098211139 -0.39395362 0.947137
0.31683764 -0.41859981 0.70018673
0.29177389 -0.48095116 0.98835957
0.96716988 -0.4259901 0.98835182
-0.5953365 -0.30502883 0.9273423
0.79515165 -0.43559051 0.95065796
-0.78711432 -0.37158221 0.82525986
-0.19665881 -0.33760446 0.85344571
-0.11895639 -0.36933431 0.97561198
0.44015101 -0.29873809 0.8143962
0.76269877 -0.29029819 0.98974186
0.78975123 -0.25241956 0.85529774
-0.19976877 -0.30404687 1.0027884
0.10309658 -0.11016052 0.92183095
0.068628706 -0.27103987 0.92846286
0.36177889 -0.30021536 0.93387061
0.68852991 -0.24297604 0.92533296
-0.24957561 -0.11503854 0.91544092
-0.082245663 -0.13964176 0.95503795
0.36856598 -0.21109572 0.80057752
0.92715478 -0.25788352 0.91771591
-0.34028849 -0.28518128 0.75848502
-0.40544236 -0.16515391 0.836757
0.34712395 -0.071262173 0.97252476
0.45246446 -0.065038219 0.88185495
0.55455327 -0.05817933 0.91124392
0.69942623 -0.19716953 1.0028143
-0.65674525 -0.082145058 0.89064276
-0.15773863 -0.040827796 0.92358547
-0.13268025 -0.17041227 0.97953987
0.71701938 -0.097627155 0.97554582
0.97755557 -0.22175047 0.99351627
-0.68590099 -0.071831815 0.86634463
-0.60735333 -0.016036913 0.93170214
0.47486001 -0.13098924 0.93552738
0.53091085 -0.091387473 0.90483707
-0.47571135 0.065584823 0.84975147
0.10480325 0.067116693 0.45648295
0.3103708 -0.16780236 0.91736543
0.33324957 -0.0039981753 0.73531574
0.3918809 -0.028706348 0.96550846
-0.63467294 0.12638459 0.8932476
-0.036040585 0.079881623 0.84548032
-0.015349052 0.028258715 0.90773559
0.17072181 -0.033025336 0.84710467
0.43519673 0.088461548 0.96920931
0.46443418 0.0050088032 0.91344267
0.54636449 0.0025279508 0.94851732
0.89034247 -0.0075434963 0.85394537
-0.3710835 0.034500774 0.97295165
0.4296405 0.07671845 0.87654817
0.48178717 0.098709933 1.0004281
0.89751256 0.11987102 0.91673005
-0.64877361 0.13113013 0.96261179
-0.3322897 0.10940611 0.89765429
-0.045841269 0.10377102 0.89772362
0.19028509 0.18943202 0.86873168
0.269483 0.15010449 1.0038092
0.41548038 0.057376418 0.8816095
0.71344411 0.006061587 0.90697408
-0.45554122 0.31006351 0.87764055
-0.3158682 0.093281887 0.97492456
-0.12376595 0.12781715 0.91486597
-0.05601988 0.16484553 0.83342326
0.10383539 0.11477425 0.83799052
0.23044299 0.15152904 0.6718359
0.12988171 0.087039508 0.96042365
0.74891973 0.09228164 0.94288838
-0.55835974 0.32479477 0.79182053
-0.27073956 0.22118598 0.68312663
0.039153259 0.27068612 0.82318717
0.14924365 0.14642724 0.94276106
0.48170352 0.22350352 0.88032031
0.74472749 0.1926139 0.89826089
-0.43332884 0.24063602 0.93347538
-0.40147841 0.31728777 0.99915069
0.14252338 0.34128761 0.78244942
0.17203374 0.2732586 0.88898915
0.46213016 0.1911191 0.73409581
0.72985518 0.19171661 0.81172138
-0.55464983 0.42138329 0.85650104
-0.26181346 0.39335406 0.9041881
-0.20103811 0.37843686 0.98566866
0.19120502 0.4630259 0.89139259
0.33973691 0.23811689 0.97701329
0.84811401 0.27361995 0.95074385
-0.59812516 0.33847481 0.85008126
-0.15288864 0.23698081 0.79179519
-0.15962215 0.35343832 0.90191621
0.29287809 0.2389915 0.78830731
0.7305457 0.48494786 0.86650121
0.79106313 0.34336194 0.99148655
0.93985087 0.44693303 0.81821334
0.010955095 0.30953825 0.93844891
0.30046663 0.24169284 0.87251973
-0.74694794 0.51450449 0.99337268
-0.37410671 0.54550421 0.93854082
-0.17056501 0.51046288 0.97023809
0.16247208 0.50592828 0.97840589
0.33533674 0.43909195 0.93100548
0.74768543 0.53345394 0.97713542
-0.80562019 0.52568269 0.95425564
0.40681821 0.30652985 0.64294726
0.42908302 0.59642333 0.96771872
-0.57851762 0.4826799 1.0004338
-0.47551244 0.60097826 0.94247222
-0.42336205 0.60216171 0.94571656
0.09612345 0.50977671 0.90180594
0.16588993 0.49457929 0.99326515
0.56247061 0.6234889 1.0035129
-0.66824883 0.57877314 0.92891687
-0.47638822 0.5903607 0.92076272
-0.059372138 0.47017312 0.73670524
0.027735591 0.46968377 0.8387866
-0.028118452 0.65610242 0.98517001
0.49126548 0.52197158 0.84377831
-0.14395508 0.73517495 0.9112376
0.043968786 0.7108224 0.94570404
0.70069641 0.72947603 0.82452118
0.92843932 0.62590539 0.94416779
-0.66243881 0.72156298 0.97952169
-0.5962801 0.7472381 0.90678638
-0.47909865 0.78455198 0.92937237
-0.27730694 0.76163787 0.96225977
-0.14551196 0.70488268 0.9045592
0.27282518 0.75491565 0.95645809
0.61586922 0.65471071 0.92035836
0.75552088 0.60399485 0.91563755
0.26616886 0.58963621 0.86167526
0.92257905 0.61642516 0.91893387
-0.56855679 0.70067883 0.96799994
-0.064732596 0.72922242 0.95269603
-0.028184732 0.87287652 0.9316839
0.29560968 0.77971339 0.9877671
0.2941463 0.68149745 0.88878679
0.12097145 0.83990896 0.94040269
0.51634789 0.38979337 0.49103075
0.57299995 0.64722401 0.85303867
0.7458654 0.76581091 0.85700315
-0.20241889 0.90812027 0.92752331
-0.064918838 0.80743122 0.77709979
-0.1339937 0.95816803 0.91698951
0.023668766 0.87358063 0.8537851
-0.5938009 -0.88042372 0.99115163
-0.37842366 -0.87078458 0.94859779
0.018487368 -0.84758377 0.99039185
0.15174481 -0.81640363 0.9600597
0.38991284 -0.7417742 0.92658997
0.75949222 -0.78019351 0.8749907
0.97531497 -0.8241356 0.88701892
0.011220296 -0.86597705 0.93549305
0.29123169 -0.75019121 0.92500061
0.92346174 -0.74752367 0.96873105
-0.64305967 -0.68576956 0.96745437
-0.40874171 -0.71927685 0.79651165
-0.29784298 -0.61398315 0.96944338
-0.14106581 -0.79149896 0.80448782
-0.16429409 -0.73570818 0.9287169
0.10590073 -0.78360289 0.97032112
0.24998783 -0.81080788 0.94996661
0.33845106 -0.83512497 0.95629311
0.47580671 -0.80416894 0.87937689
0.88998663 -0.77480221 0.91200507
-0.75729293 -0.69381791 0.93369466
-0.13932638 -0.64806914 0.97780806
0.45874363 -0.64908767 0.84152615
0.52432466 -0.61297947 0.94404316
-0.47705823 -0.57759804 0.94941866
-0.32912078 -0.66474229 0.98382014
0.46714255 -0.65250176 0.86732572
-0.050327964 -0.54115522 0.73306614
0.24078725 -0.60272044 0.81450117
0.607889 -0.67992538 0.90668195
0.80123538 -0.50904197 0.97143745
0.84147549 -0.66309696 0.95086598
0.36281627 -0.58710104 0.91322464
0.39625245 -0.53909606 0.99779671
0.50865763 -0.50987428 0.9952389
0.97873348 -0.47058296 0.91782814
-0.82511741 -0.51939046 0.97724777
-0.065807723 -0.27634746 0.38249886
-0.22803089 -0.38204554 0.838673
-0.15226673 -0.4946084 0.91346788
-0.1498218 -0.48664367 0.91043258
0.37483516 -0.60104066 0.91847563
0.7981661 -0.47707686 0.95492661
0.77046919 -0.43939662 0.87771523
-0.62979949 -0.42784396 0.92765057
-0.38159949 -0.37007344 0.89268583
-0.17837368 -0.53287941 0.82738405
0.96957344 -0.40276861 0.96807069
-0.6915859 -0.46641418 0.88227266
-0.62475526 -0.49973449 0.95492691
-0.16060409 -0.35008174 0.99937981
0.90006995 -0.44392872 0.77501303
-0.84403187 -0.46166614 0.97158396
-0.52981949 -0.44426805 0.93496895
-0.1805698 -0.42587245 1.0524266
0.43395361 -0.32140422 0.91032642
-0.79312569 -0.38076064 0.98959458
-0.62942916 -0.38746127 0.87013477
-0.40924776 -0.31763315 1.0510752
-0.083043538 -0.29412514 0.98318452
-0.017138299 -0.32793951 0.98241007
0.15990323 -0.30269474 0.95350468
0.42232537 -0.40472862 0.93416315
0.57569981 -0.25530985 0.91251987
-0.68583184 -0.2710261 1.000828
-0.45370191 -0.32753429 0.97005665
0.20173778 -0.29224744 0.78429395
0.63572145 -0.33567384 0.96542728
0.51885164 -0.24762392 0.97713059
0.79700804 -0.33542269 0.89074218
0.73719519 -0.078033775 0.82145458
-0.34633872 -0.17389341 0.96434152
-0.40058404 -0.24225774 0.97252321
-0.027029818 -0.24413511 0.91980207
0.18238783 -0.23853338 0.76917917
0.93033874 -0.18799174 0.98756158
-0.52400422 -0.19594242 0.98049682
-0.30989164 -0.11240085 0.87568897
0.79421133 -0.16001403 0.97234005
-0.017709646 -0.049416848 0.88036913
0.3372927 -0.21111833 0.8429051
0.39068314 0.003700661 0.84241092
0.58873951 -0.038103085 0.999156
-0.35661927 -0.00051136658 1.0459898
-0.38869447 -0.033557735 0.91917741
0.3017883 -0.037856709 0.8918153
0.43734941 -0.091556005 0.97032183
0.93772185 -0.082474135 0.94579452
-0.53042352 0.018598406 0.86801052
-0.05546955 0.044301659 0.95930821
0.15461215 -0.085081533 0.77187651
0.12737074 -0.036169756 1.0508523
0.24749351 0.016598385 0.99004859
0.40836841 0.11322422 1.0522212
0.88684869 0.0081684617 0.94581997
-0.70819312 0.067692764 0.89652318
-0.65824175 0.014836686 0.90085083
0.058822751 0.14669032 0.86848211
0.17881495 0.097848631 0.99564481
0.74108845 0.026752139 0.93861723
0.93265647 0.12160319 0.9765113
-0.76578903 0.12563056 0.93282264
0.081087284 0.088986978 0.85825145
0.97835034 0.088337868 1.051493
-0.5641948 0.094187304 1.0034926
-0.62864196 0.11660689 1.0515187
0.38205546 0.14203365 0.9064523
0.70070308 0.17170125 0.94205588
0.79910928 0.25321108 0.99680603
-0.37421131 0.13138974 0.88613814
-0.17643009 0.14823459 0.92816156
-0.55713892 0.25468087 0.999538
-0.27487963 0.13508771 0.94607943
-0.29594418 0.25685039 0.95239651
0.3838414 0.28961411 0.96859157
0.68732762 0.30101478 0.87045336
0.74297345 0.27681419 0.95095867
0.79423136 0.31928903 0.97065449
0.51010239 0.30116978 0.9516995
0.83939856 0.34899315 0.92102492
-0.33431542 0.23965521 0.94786692
-0.19408815 0.48743698 0.80126762
-0.15660526 0.42779121 0.98196214
0.06122645 0.37628803 0.82319748
0.090488099 0.41273123 0.94179392
-0.55023932 0.34849361 0.87133133
-0.50260139 0.32774201 1.0480946
0.8157599 0.46224374 0.7580182
-0.54687548 0.43856031 0.99315643
0.2352898 0.3801868 0.99455208
0.51597083 0.36598307 1.0515002
-0.42392856 0.48733217 0.99935287
-0.34496689 0.48336759 1.0035644
0.042834695 0.36589727 0.90844673
0.4526113 0.45790142 0.95214653
0.78401798 0.48118192 1.0503262
-0.4521156 0.47031426 0.96357381
-0.19236484 0.44637391 0.90701336
0.89447021 0.41741452 0.93756765
-0.72343141 0.43554804 0.90056348
-0.70010316 0.48698801 1.0502965
-0.44471085 0.6027227 0.93102658
-0.011914082 0.56814754 0.95074558
0.1088571 0.52638137 0.97915447
0.34458217 0.56247312 1.0003474
0.52998072 0.65495139 0.97122592
0.83707529 0.5199092 0.95141429
-0.53835708 0.33824936 0.85833377
-0.65745145 0.56967473 0.83410823
-0.43963352 0.75318635 0.87710673
-0.19905543 0.70024592 0.95214343
-0.093009882 0.735237 0.89324683
-0.53393716 0.61564285 0.78893024
-0.40456745 0.73788244 0.9865877
-0.20516004 0.43492755 0.79283917
0.10321677 0.69209576 0.97511566
0.56655538 0.67321092 0.94823563
0.79595065 0.68131882 1.0490011
0.84354341 0.68163824 0.9907338
-0.59974879 0.7338264 0.95638901
0.70336598 0.74299252 0.88862705
0.57118744 0.53883904 0.95721245
0.1641375 0.76911533 0.93184108
0.43023711 0.79145133 1.0537455
-0.63096857 0.87623423 0.91920686
-0.34630287 0.68563509 0.95133549
-0.2633521 0.82806456 0.97354567
-0.0631641 0.76610589 0.96798074
0.65246916 0.84506243 1.0438633
-0.22614884 0.79420906 0.9948234
0.24825752 0.874394 0.83747572
0.7835077 0.8068614 0.93172807
-0.2652939 -0.83556938 1.1028804
-0.17543244 -0.92349875 1.1015528
0.42574373 -0.89321095 1.0943018
0.85206366 -0.91262329 0.88577294
-0.51790476 -0.91322762 0.95395499
-0.29469907 -0.7935164 0.89856839
-0.058197077 -0.63888925 0.98643696
0.54221976 -0.5942536 0.84219891
0.60872793 -0.84598911 1.1036999
-0.75730485 -0.71416116 0.98053265
-0.65497988 -0.74102402 0.94518173
-0.45923638 -0.76245648 0.9591409
0.18052435 -0.81302059 1.0498286
0.53068674 -0.70891416 0.95671111
0.97451872 -0.77738488 1.090799
0.032191992 -0.65049404 0.93014449
-0.12073734 -0.72614419 1.1025637
0.52586448 -0.7756775 1.1022273
-0.63461435 -0.71183252 0.98514014
0.39272308 -0.69106388 1.1028378
0.84289843 -0.59721935 0.95707977
-0.64335626 -0.65394962 1.0514014
-0.21980885 -0.62847668 0.97291875
0.15459144 -0.46259078 0.9264313
0.17414638 -0.64212358 1.1055709
0.75251275 -0.74018508 0.99868953
0.79102218 -0.73167896 0.9733631
0.84643954 -0.73510718 1.0485065
0.48461771 -0.56399268 0.99429131
0.76713723 -0.43950462 0.93321335
0.88329238 -0.55083722 0.97369456
-0.75260782 -0.49350771 1.1007566
-0.41141462 -0.54466218 1.0943745
-0.2047658 -0.65752566 1.1035832
-0.17829023 -0.51366389 0.90218198
0.15055545 -0.57663769 0.98133433
0.30702719 -0.58231115 0.92961198
0.47837052 -0.59616518 0.81459635
0.75634634 -0.46745595 1.0478539
0.72666878 -0.54236746 0.99653447
-0.021454493 -0.45761245 1.0989878
0.69789457 -0.57427621 1.102271
0.75387895 -0.43305013 1.1019397
-0.88293964 -0.44394532 1.1044012
0.83860618 -0.20935331 0.90744883
-0.076166607 -0.34542963 1.0951363
-0.028315034 -0.43818319 0.98990077
0.24033213 -0.35858196 0.99781322
0.3126201 -0.4582108 1.1025538
0.67376113 -0.38767421 0.93996274
0.75776511 -0.28404397 0.9913193
-0.62723458 -0.32964787 0.99478263
0.71408308 -0.43203077 1.0984246
-0.69546998 -0.39805803 1.1041876
-0.17472437 -0.33041593 0.93209469
0.1456088 -0.3013435 0.98340857
0.47805688 -0.30535761 0.97858864
-0.51010966 -0.19415134 0.99894375
0.31809199 -0.25620475 0.93765002
0.57498008 -0.14264788 1.0451216
0.74144989 -0.27032688 1.0489109
-0.64609861 -0.16209921 0.78845012
-0.30731505 -0.16919462 0.94955802
0.43837926 -0.20686208 0.94158459
-0.17716631 -0.167813 0.82836175
-0.22391759 -0.22816378 1.0461816
0.79690379 -0.1571705 0.98208863
0.048069648 -0.015902264 0.85773695
0.10301166 -0.024776442 0.96220511
0.26624149 -0.094610065 1.100539
-0.63799226 -0.028601337 0.97220272
-0.53588611 -0.11082195 1.0999174
0.12952073 -0.088303514 1.0947417
0.43616146 -0.066624254 1.0028768
0.34471598 -0.18198614 1.0969025
-0.37588325 -0.023630057 0.93687522
-0.32747763 0.02121521 0.98944521
-0.0076395446 -0.14834766 0.97406662
0.014000693 0.010923923 0.96315551
0.089873053 0.091760792 0.92128605
0.97612953 -0.079596065 1.0960766
0.17777766 0.087596223 0.96900475
-0.4267264 0.014657187 0.94170761
-0.56638277 -0.033424098 0.88598323
0.94381523 -0.069848843 0.86514461
-0.68241787 0.015971862 0.87921315
-0.44850764 0.092271149 1.1007406
0.071633607 0.096437879 0.9915992
-0.71816331 0.15614215 0.95977533
-0.42344475 0.19399609 1.1016982
-0.19664922 0.037691213 1.0971667
0.43005949 0.1406136 0.97569656
-0.23982628 0.16711845 0.97675347
-0.025544889 0.13044891 0.94691437
-0.56134301 0.1087117 0.95145446
-0.29200134 0.24426787 0.99116516
0.54382193 0.32465985 0.98962754
0.67931992 0.14585462 0.9451673
-0.51404953 0.23518656 0.99615937
-0.025798142 0.29972413 1.0940485
0.81136113 0.36335894 1.0977424
0.96998543 0.25895265 0.94581789
0.89081293 0.31380773 1.0965166
-0.70890176 0.46732596 0.99950176
-0.40256125 0.25888866 1.0973911
-0.30889583 0.29417726 0.9484269
-0.20746481 0.354307 1.1005988
0.56454509 0.39010659 1.1018858
0.88879013 0.45036492 0.99295962
0.85117143 0.47396678 0.89840692
-0.64795667 0.49573559 0.98269475
0.53687501 0.75806379 0.64848328
0.19158588 0.45029843 1.0955664
0.32128 0.50515771 0.93661594
0.60391927 0.53398347 0.87989593
0.47703663 0.58100104 0.96890002
0.7417289 0.28699365 0.91644925
0.95138168 0.52792633 0.65715456
-0.49427256 0.33981785 1.0505857
0.059949338 0.46509841 0.96972197
0.30180514 0.66643178 0.97232276
0.84438157 0.48296252 0.90870953
-0.1748735 0.62532538 1.0444502
0.14983927 0.51573753 0.80437684
0.44800553 0.59063637 0.81187665
-0.32521486 0.77253181 0.92418337
-0.58295435 0.56568557 1.0961721
-0.43092525 0.55921268 1.0021981
-0.27804157 0.74413317 0.94115943
0.0049508875 0.72534227 0.91142148
0.51140302 0.71355385 1.1004788
0.64676082 0.58223099 0.88908112
0.82569259 0.40429437 0.95565975
-0.70518261 0.75265968 1.0483499
-0.57228076 0.83212078 1.0982094
-0.35250628 0.59582961 0.8682363
-0.11204139 0.72651273 0.99016035
0.22929654 0.83305311 0.83178937
0.48530483 0.7531848 0.97803807
0.50744843 0.81499308 1.0436418
-0.6582734 0.68097401 0.9888792
0.017864445 0.83116853 1.054155
-0.83476532 0.98407578 1.1397166
-0.53722835 0.75949961 0.93463242
-0.097686611 0.59146273 0.91076434
-0.63024133 -0.89584845 0.98312873
-0.43883994 -0.67979586 1.1524689
-0.079952054 -0.91381073 1.1554059
0.38146955 -0.82767648 0.9978866
0.51281935 -0.84770256 1.0952859
-0.46202478 -0.79332513 1.1525471
-0.18698609 -0.65572727 0.95475054
-0.027086429 -0.78277099 1.1515893
0.75986695 -0.56731319 0.96513671
0.73969376 -0.89707506 1.1564549
-0.39782578 -0.57669252 0.91420162
0.25953522 -0.80204016 1.0476048
0.44642305 -0.84585881 1.1532671
0.6602996 -0.76549339 1.1482284
-0.34246692 -0.80356669 1.1533819
-0.30999634 -0.82044619 1.1470103
0.16506371 -0.67136925 0.76216382
-0.67873257 -0.63843399 0.99855185
-0.78240192 -0.62070167 1.1492264
-0.39907643 -0.70491731 1.1496856
-0.34270611 -0.61305571 1.1528466
0.25902626 -0.66176319 0.91688597
0.34034377 -0.59862441 1.1519685
0.54018462 -0.68264019 1.1032259
-0.43625534 -0.63451576 1.1524798
-0.28709361 -0.62758046 1.1003662
0.01483047 -0.71424121 0.94023824
-0.16403797 -0.54646891 1.1515168
0.39379287 -0.76073807 1.1497424
0.51857007 -0.62998891 1.1499871
0.75903767 -0.52431154 1.1515058
-0.44612122 -0.63747585 1.0988307
0.30899212 -0.54567653 1.1489034
0.36739928 -0.46797231 1.1537938
0.46457186 -0.67030567 1.0922109
0.73435736 -0.61291099 1.1560625
0.90237892 -0.52843362 1.155171
-0.34789574 -0.5954439 1.1478306
-0.10081924 -0.53392404 0.97019225
0.46776527 -0.48139891 1.1485763
0.63179803 -0.59259051 1.1559753
-0.6886149 -0.38102999 1.1488445
-0.13386646 -0.41994566 0.98308867
0.18176381 -0.45629004 0.96945405
0.67524922 -0.38516411 1.1534361
-0.4670403 -0.52736098 1.0476925
-0.15259314 -0.42630285 0.98302621
-0.034793675 -0.37116352 1.1480569
0.12209916 -0.53122979 1.0501535
0.49816814 -0.36218241 0.90133446
0.62055385 -0.3755655 1.1469432
-0.18081732 -0.32791802 0.98682874
0.14959371 -0.14137255 0.87666273
0.19234031 -0.36447728 1.0991149
0.31718177 -0.4105292 1.1480082
0.33290029 -0.4588781 0.99563712
0.70761228 -0.39760026 1.0030231
0.72761577 -0.27938175 1.1512084
-0.52685952 -0.27253485 1.0949795
-0.35105926 -0.31979764 1.1492175
-0.087179966 -0.29557851 0.82093066
0.034077119 -0.35597378 0.93812847
0.20651156 -0.11087856 0.98386681
0.13804303 -0.15654324 0.86472607
0.14940485 -0.37029311 1.1481297
-0.023816125 -0.42295444 1.1489325
0.7854948 -0.32847533 0.79541928
-0.65282464 0.021241436 1.1476469
-0.54055458 -0.30919608 0.97621441
-0.61749929 -0.34351149 1.1508927
-0.56105107 -0.1914625 1.1496121
-0.29154941 -0.058612034 0.9219166
0.58523721 -0.20807041 0.86675805
0.58913863 -0.17065302 1.1530926
0.31443268 -0.13134256 0.95636964
0.51430619 -0.19052361 1.1482432
0.7560243 -0.27085716 1.1525279
0.89766848 -0.25542831 1.149537
-0.71370715 -0.14228283 1.0468334
-0.63398904 -0.10595795 1.1484802
-0.213369 0.0012346715 1.1513834
-0.11466941 -0.20845325 1.1446174
0.17405277 -0.12405987 1.1019107
0.3132318 -0.10340907 1.1506554
0.43724507 -0.15572725 1.1521853
0.021478456 -0.105717 0.87594008
0.6465466 -0.092893168 1.1444623
-0.68418038 -0.041393574 1.1445458
-0.22018576 -0.26581913 0.71133041
-0.28068632 0.12418994 1.1502889
0.069558725 0.034030307 1.1475989
0.74888408 -0.17082682 1.1523186
-0.71389759 -0.010191394 1.0462319
-0.71504128 0.034768637 1.0471226
-0.49270445 0.062433999 1.1438485
0.40730211 0.035450663 1.1507527
0.70688164 0.094042353 1.0978494
0.92882955 0.18294322 1.153693
-0.92606831 0.13835812 1.1941998
0.32871705 0.087913334 1.15242
0.68002063 0.089123435 0.94574094
0.57518107 0.21639249 1.1504927
0.93642515 0.08604639 0.91190857
-0.6814872 0.083319858 1.0469422
-0.51670694 0.18437026 1.0498452
-0.44912499 0.205163 1.0971923
0.20050101 0.10362818 1.1454008
0.071785659 0.15517908 0.94344306
0.55509818 0.19024785 1.049473
0.69711173 0.24915747 1.1519276
-0.80883741 0.36175567 1.1480691
0.97629315 0.096524492 0.96803159
-0.72816473 0.32572502 1.1917435
-0.3058269 0.36117139 1.1484954
0.10481739 0.35158211 0.94721085
0.12776622 0.19957009 1.1508436
0.79315948 0.20423131 1.1433587
0.69381225 0.31387162 1.1509619
0.6641112 0.19532588 0.95903033
-0.2112397 0.5815506 1.1449788
0.00047883607 0.43636823 1.1446216
0.88547772 0.5063324 0.96775502
-0.52762359 0.37554637 0.95641118
0.082450867 0.33126533 0.98306394
-0.27839682 0.30443874 0.97085178
-0.42980373 0.36356315 1.144298
0.019519038 0.50409883 1.1506057
0.27144304 0.50406688 1.1420062
-0.71482551 0.48644659 1.0994447
-0.57801241 0.68536741 0.98599815
0.78539002 0.61130822 0.97385263
0.8116352 0.5366708 1.1507319
-0.28828385 0.4439303 0.97284061
-0.43459219 0.71734858 1.0462935
-0.11179592 0.56710064 0.86662513
0.13824075 0.53555536 1.0537575
-0.36922142 0.64784545 1.140869
0.52260369 0.72543561 1.0019236
-0.68136513 0.770051 0.95447844
-0.30328903 0.62934351 1.1475068
0.49549443 0.66101158 0.92820472
-0.51397991 0.73127115 0.9890306
-0.13639697 0.89225078 0.83090699
0.48549804 0.75510514 1.1478834
-0.2051665 0.83037293 1.1456757
-0.044808712 0.70832556 1.1435735
0.55393124 0.5657078 0.88423795
0.48609471 0.88735676 1.1468942
0.021979969 0.8178947 1.0459092
0.064636059 0.91002613 1.1466208
-0.14426763 0.81686729 1.1479858
-0.19917974 -0.78867328 1.2005478
0.35900161 -0.91637266 1.2026607
0.74346745 -0.77808779 1.1980915
-0.24529018 -0.81715244 1.1950051
0.053378742 -0.86633617 1.0019584
0.47976676 -0.8587389 1.2005297
0.63248682 -0.91423595 1.1980231
-0.24683042 -0.82415241 1.2012116
-0.056005556 -0.76490384 1.1976
0.17381993 -0.53648174 1.2008061
0.86387849 -0.84802669 1.2001636
-0.73540461 -0.68261772 0.94843262
-0.72459149 -0.71439898 1.2034806
-0.31905454 -0.69952559 1.2008597
0.37763473 -0.49052525 0.83701354
0.63359988 -0.64539003 1.2012209
-0.58100206 -0.73212379 1.1982988
-0.033547133 -0.7640962 1.2001793
0.17896634 -0.62878418 1.1957384
-0.76511991 -0.59277743 1.1940987
-0.094973102 -0.69625753 1.2026304
0.14212416 -0.57688361 1.1972611
0.3535834 -0.57907015 1.2003609
0.87888318 -0.60691154 1.095191
0.81135356 -0.67106223 1.1982569
-0.56787157 -0.62725812 1.2044909
-0.47632778 -0.5439226 0.97575343
-0.19766089 -0.59919947 0.96734643
-0.37468904 -0.50689209 1.1978453
0.0059663355 -0.65630889 1.1996062
0.79200697 -0.76552474 0.63171148
0.79620999 -0.68641633 1.0469846
-0.81791633 -0.63090265 1.2038106
-0.28557277 -0.34790641 0.90287066
-0.2428821 -0.38937327 1.2034812
-0.18179011 -0.40093267 1.1955237
0.21132302 -0.45106003 1.1949725
0.3892602 -0.42730463 1.0500939
0.58304626 -0.55825186 1.1965617
0.85993212 -0.52000397 0.92420763
-0.63503104 -0.46427283 1.192713
-0.38865992 -0.57051349 1.2037512
0.032476362 -0.60571414 1.2006613
0.69755358 -0.55035931 1.1969168
-0.68253052 -0.46785384 0.99157965
-0.28985855 -0.40017179 1.1991262
0.55517441 -0.40903378 1.1986386
0.75881612 -0.53468812 1.2016551
0.91680807 -0.41642162 1.2000428
-0.45736179 -0.47860819 1.1946347
-0.58108824 -0.50751609 1.2020987
-0.30570093 -0.53292125 1.2006888
-0.37027872 -0.3987501 1.202675
0.5940249 -0.47010714 1.2018754
0.63714457 -0.37398908 1.1968663
-0.50441688 -0.29690814 1.1968778
0.31015804 -0.36541066 1.2020135
0.88704526 -0.45893535 1.1504784
-0.15874141 -0.42672023 1.2008265
0.18994682 -0.29494491 1.1995511
0.42209589 -0.26377177 1.1043582
0.59837943 -0.28641573 0.9349426
-0.81373167 -0.19959073 1.2033859
-0.15882635 -0.42307207 1.2004131
0.016057339 -0.28267953 1.1972294
0.57738817 -0.18948689 1.2013321
0.41245979 -0.20757677 1.1974679
-0.52072442 -0.35599351 1.1961858
-0.14957747 -0.3485899 0.95100242
-0.14485693 -0.1845748 1.0957029
-0.0613846 -0.17846093 1.2017145
0.49549109 -0.26036638 1.1992701
0.76097322 -0.12837249 0.81843245
0.92641681 -0.26478282 1.1004978
-0.73223794 -0.24865232 1.2018325
-0.29465625 -0.23848769 1.097118
-0.33572695 -0.18194829 1.1959511
-0.10488607 -0.30052 1.2005576
0.087392829 -0.081191503 1.0954037
0.095747747 -0.26359364 1.1946604
0.025469115 -0.20612687 1.1978477
0.29512039 -0.12340658 1.2003241
0.26131025 -0.19061145 1.1966056
-0.53364742 -0.081053093 1.2015389
-0.47251555 -0.093051568 1.1509001
-0.25503597 -0.10437632 1.0500872
-0.22690153 -0.056831751 0.97495258
0.13748498 -0.16404229 1.1991867
0.27069512 -0.1847548 1.1990274
-0.51782209 -0.043505564 1.1930481
0.28361216 -0.058691431 1.0952677
0.46804705 -0.050341561 1.1957588
0.59557134 -0.055407837 1.0984334
-0.83118188 0.0024436899 1.1974654
-0.58245963 -0.026187023 1.2007715
-0.3137469 -0.068495907 1.2026681
0.13623588 -0.10181544 0.98886341
0.28135577 0.013028662 1.1943418
0.30737042 0.067000411 1.1968563
-0.60806507 -0.1629388 1.1476905
-0.081254005 0.029854983 1.0030965
-0.12242065 0.0051993546 1.1927388
0.384646 -0.06810648 0.95205027
0.78925836 -0.016804148 1.2021743
-0.48028648 0.073066324 0.97443807
-0.70463568 0.04332599 1.1999475
-0.52820343 0.13402495 1.1931869
-0.33535469 0.033067971 1.2020799
0.61107188 0.0081356894 1.0458243
0.89563602 -0.048715811 1.2012334
-0.80649585 0.07893426 1.1935918
-0.57019889 0.16205627 1.1962637
-0.61592728 0.12358944 1.1957073
-0.22667545 -0.044432268 1.2022351
0.12765129 0.20590791 1.099063
0.37016031 0.029831279 1.0509982
0.61387444 0.24493462 1.1495302
-0.85963666 0.16554268 1.195202
-0.60706449 0.040226407 1.2002136
-0.098083749 0.010172233 0.89624941
0.38328874 0.024265375 1.201995
0.57233566 0.062557437 0.84672159
0.52713382 0.27762604 1.1930201
-0.68725652 0.21948431 1.1940054
-0.066194855 0.18013245 0.9406473
0.17754669 0.13380547 1.1989622
-0.62045026 0.17161629 1.1953382
-0.67293948 0.10877719 1.1974983
-0.11537182 0.23900491 1.2025145
0.3679432 0.12089576 1.19593
0.2865372 0.12153918 1.1989973
0.86699975 0.15647605 1.1477988
-0.59688497 0.19780096 1.2001576
0.048815198 0.26612404 0.98640388
0.34125182 0.21068375 1.2010852
0.97525799 0.14155792 0.93077588
-0.82164472 0.21144547 1.2020673
-0.57425541 0.27909753 1.1972635
-0.54617816 0.34340164 1.2023853
-0.31797552 0.28509775 0.9889906
0.11352904 0.11192311 0.92304766
0.059338491 0.2890515 0.900644
-0.0867287 0.29786235 1.1933445
0.40704787 0.32206881 0.96343768
0.31865004 0.077936806 0.88029236
0.56973898 0.29631457 1.1940173
-0.86993641 0.25068176 1.2020029
-0.091490529 0.28229991 0.80222297
-0.080672115 0.25173616 1.0474232
-0.034415513 0.36760008 1.193228
0.26728639 0.43334922 0.82601732
0.10478264 0.39302227 1.1970147
-0.073413715 0.2492902 0.9245317
-0.12724304 0.2088767 1.2000235
0.14089209 0.28721076 1.1949269
0.35475427 0.30021062 1.200874
0.49773115 0.28568703 1.0951662
0.59762847 0.32864785 0.99844575
0.55745554 0.41344291 1.1948301
-0.69635379 0.34439984 1.1482571
-0.5778107 0.3874602 0.9619925
-0.4592993 0.31848857 1.2016163
-0.017586164 0.4600884 0.98441648
0.35128132 0.4284085 1.2002002
0.888156 0.49902314 1.1487058
-0.79415721 0.50443745 1.1935557
0.18095601 0.35071748 1.1949016
0.37506589 0.44989023 1.1997489
0.55276221 0.44017756 1.1999213
0.97840703 0.51545066 0.93432587
-0.66354889 0.60391325 1.1402113
-0.016468097 0.3630743 1.2021345
0.32035229 0.42637581 1.000512
0.41548583 0.48582992 1.0961473
0.55539042 0.45548257 1.1954677
-0.61623651 0.48239249 1.2011641
-0.71670032 0.45629475 1.2026041
0.21434057 0.59254408 1.1988592
0.30956855 0.59682709 1.1991074
0.38710657 0.34040505 1.1941824
0.58383417 0.51630253 1.1995405
-0.82798797 0.48450661 1.1991081
-0.68006378 0.44216532 1.1921414
0.80434245 0.60142922 1.0438299
0.49894315 0.42761394 1.1931651
-0.14927681 0.57320285 1.1977103
0.36390141 0.58787864 0.99324161
0.37666133 0.48540559 1.146117
0.70609236 0.68702406 1.1960976
0.79709309 0.65829372 1.1992084
-0.62651527 0.62644702 1.1988912
0.079529218 0.81084704 0.98149043
0.22395395 0.65578079 1.1995707
-0.9007839 0.70507878 1.2011241
-0.77678186 0.73952305 1.1998664
-0.535855 0.58279067 1.1902347
-0.45866075 0.68319935 1.1985136
0.3194806 0.513322 0.97387588
-0.53265697 0.6974144 0.94254947
-0.6750527 0.70442975 1.2020274
-0.014677605 0.79019821 1.0488563
0.29493573 0.79455549 1.2008417
0.18241164 0.60272312 1.1989214
0.52533048 0.58215493 1.2002983
-0.77550977 0.83018696 1.202565
0.036823869 0.84564334 0.95752341
0.66787404 0.76506877 1.1923695
-0.2914142 0.8621459 1.1951956
-0.14770587 0.75220817 1.1482159
0.18624552 0.75979722 1.0543038
0.23914915 0.88762051 1.2009425
0.44016355 0.79643857 1.1916497
0.61960894 0.64723176 1.1482985
-0.97041225 -0.97672349 1.2628573
-0.81662464 -0.868999 1.2550873
-0.87449217 -0.97533262 1.2762053
-0.82408971 -0.96651012 1.2715813
-0.77567214 -0.97253478 1.273533
-0.64560741 -0.87720442 1.2589589
-0.61095893 -0.75185317 1.265278
-0.62042075 -0.98311001 1.2708412
-0.57354969 -0.9711324 1.2649909
-0.47971585 -0.93989742 1.2633977
-0.43302965 -0.98222053 1.2795771
-0.38357058 -0.81421226 1.2534858
-0.31248564 -0.92206508 1.2689049
-0.31836137 -0.65602744 1.2540026
-0.18166219 -0.98088473 1.2817163
-0.060581319 -0.78445184 1.2679545
-0.021630235 -0.97720784 1.2706807
0.074408881 -0.96990639 1.271798
0.12944038 -0.96839845 1.2740526
0.17999977 -0.9748711 1.2762883
0.215819 -0.97256297 1.2733902
0.27407277 -0.96859467 1.2765285
0.3251594 -0.97555697 1.2702808
0.37819362 -0.97874224 1.275733
0.33986282 -0.91185188 1.2518517
0.41165221 -0.81043816 1.2595849
0.5802623 -0.9732787 1.2607553
0.61856103 -0.96948975 1.2788012
0.6670953 -0.97187167 1.2691615
0.68208808 -0.87332457 1.2563125
0.82456267 -0.97448874 1.2751192
0.88390481 -0.97134322 1.2714177
0.9207592 -0.98135889 1.2740314
0.8868798 -0.85857028 1.2651805
-0.97483385 -0.91516513 1.2680464
-0.87554765 -0.9293952 1.2873204
-0.71708047 -0.83592528 1.2663597
-0.77390277 -0.83370745 1.2540766
-0.72095209 -0.91760385 1.27382
-0.56369317 -0.76892185 1.2522074
-0.62744433 -0.92947894 1.2812765
-0.57589132 -0.92134482 1.2654254
-0.52847946 -0.92127085 1.2726389
-0.47445369 -0.88744229 1.2695087
-0.41904914 -0.92218983 1.268968
-0.33549973 -0.92492259 1.2821716
-0.12185916 -0.70846355 1.2521224
-0.25098601 -0.91710961 1.2529143
-0.28117403 -0.87022555 1.2525923
0.011947073 -0.69934666 1.2478044
0.048809461 -0.72610402 1.2638791
-0.020243937 -0.82169086 1.2488662
0.078817844 -0.93209344 1.2773535
0.173673 -0.79646289 1.2603871
0.21675012 -0.79663026 1.2677571
0.27069741 -0.92655039 1.2762464
0.37815535 -0.92059833 1.2772176
0.47430015 -0.7047776 1.2586772
0.56749994 -0.91648561 1.2707314
0.61730713 -0.92320812 1.2846352
0.73988509 -0.7738713 1.2491561
0.77439457 -0.92295384 1.2801108
0.87376976 -0.93650573 1.2702888
0.56068796 -0.35888147 1.1954894
0.96138698 -0.7784465 1.2636579
-0.97483999 -0.87777334 1.2682819
-0.76787204 -0.65187645 1.2452112
-0.82723218 -0.86906374 1.2721403
-0.72255147 -0.86545688 1.2710953
-0.36213684 -0.73633516 1.0038304
-0.37456894 -0.71906626 1.2477322
-0.076002434 -0.5646373 1.0047175
-0.31744713 -0.8557173 1.2623854
-0.17810804 -0.88174492 1.2768455
-0.12130361 -0.86578691 1.2723602
0.044467602 -0.74618745 1.2031738
-0.026579183 -0.8752479 1.2811605
0.0090462444 -0.81681627 1.2589911
0.070406362 -0.87658501 1.2720652
0.16680498 -0.74590188 1.2699105
0.17483093 -0.87791258 1.2707905
0.29008162 -0.7251032 1.2498677
0.36564255 -0.88089573 1.279848
0.50735676 -0.80040264 1.1510807
0.51644278 -0.87772316 1.2772381
0.57396406 -0.87146962 1.2751924
0.62118769 -0.87555748 1.2814579
0.68405932 -0.77530515 1.2605152
0.72570503 -0.8705951 1.2805331
0.82233876 -0.87851351 1.2679398
0.6151911 -0.56298363 1.2555234
0.96260548 -0.83644366 1.2676272
-0.82828432 -0.61096644 1.246562
-0.77810895 -0.62356681 1.2525575
-0.82204747 -0.83374506 1.2723401
-0.70946753 -0.82290196 1.2548269
-0.6272701 -0.8214789 1.2735835
-0.49379906 -0.71834248 1.2594436
-0.48890281 -0.69525218 1.2631547
-0.47090006 -0.82243556 1.2746102
-0.37205559 -0.80964166 1.2640045
-0.24547669 -0.6463998 1.2463763
-0.17236885 -0.82380223 1.2760046
-0.12940013 -0.81946141 1.2801822
-0.077774107 -0.83061272 1.2713678
0.19928291 -0.53641212 1.0969802
0.0064180777 -0.67990524 1.2609609
0.10109429 -0.65368634 1.2533014
0.12219063 -0.82279474 1.2734963
0.098869652 -0.75590408 1.2556031
0.27692795 -0.79369867 1.2684641
0.26755482 -0.82580209 1.2729808
0.32955784 -0.82658827 1.2789793
0.41726801 -0.62467664 1.2537317
0.38575375 -0.79181528 1.2609323
0.47363618 -0.82248682 1.2742754
0.51331162 -0.76979464 1.2617174
0.67768806 -0.77422142 1.2652841
0.70708781 -0.56979311 1.2440231
0.84195822 -0.76539409 1.2499418
0.77764839 -0.69389945 1.2581235
-0.87887627 -0.68491912 1.2613115
-0.9318471 -0.76155597 1.2746521
-0.77918237 -0.78704083 1.2688844
-0.58116931 -0.70558745 1.2483414
-0.67815709 -0.77089566 1.2759317
-0.63231242 -0.77489913 1.2700061
-0.57682383 -0.76774704 1.2718072
-0.40151477 -0.76444304 1.2617531
-0.38972321 -0.67786109 1.2681533
-0.3222205 -0.77613616 1.276325
-0.27038702 -0.77079439 1.2798171
-0.27654973 -0.70069116 1.2615694
-0.17939043 -0.78362143 1.2760789
-0.026116729 -0.77765262 1.2688429
0.030086471 -0.78784621 1.276058
0.057041842 -0.55474067 1.2602479
0.13287103 -0.77448535 1.2759804
0.26560605 -0.68694097 1.2689338
0.27249122 -0.78365672 1.2748392
0.32333127 -0.77967274 1.2778361
0.42490736 -0.77115601 1.2793549
0.46314758 -0.67599982 1.2604979
0.57946628 -0.77131289 1.2771734
0.62487823 -0.77629852 1.2731528
0.67232227 -0.7798059 1.2755835
0.74126488 -0.68055195 1.2463449
0.77436829 -0.77474433 1.2765112
0.82534391 -0.77230585 1.2765498
0.87855673 -0.77760726 1.2752105
0.81205845 -0.66657889 1.2600602
-0.97541678 -0.61690009 1.26152
-0.79183084 -0.62558281 1.2472441
-0.82332802 -0.73068494 1.2669029
-0.68471062 -0.69022459 1.2583698
-0.71819246 -0.72288406 1.2634884
-0.66997397 -0.72772175 1.2770084
-0.52390426 -0.71984881 1.2710724
-0.32977554 -0.69670105 1.1034676
-0.42277256 -0.72536182 1.2799101
-0.46499431 -0.75030553 1.2734647
-0.28386858 -0.45525384 1.2452325
-0.26447189 -0.59729707 1.2644713
-0.25706205 -0.70955485 1.2635732
-0.17376533 -0.71427667 1.2714745
-0.12612167 -0.72776622 1.2782825
0.028744906 -0.48445654 1.2518313
0.0035388819 -0.72455329 1.2608252
0.014748458 -0.63215655 1.2533803
0.17250629 -0.72712731 1.2843728
0.2199676 -0.71539509 1.2680361
0.28048807 -0.72517335 1.2726787
0.31612048 -0.72298372 1.2733173
0.41910878 -0.69166112 1.203311
0.42628834 -0.72540122 1.278636
0.46761274 -0.73902702 1.2736918
0.45555609 -0.56582308 1.2564911
0.5119558 -0.63723439 1.2438257
0.69722068 -0.51094264 1.2656714
0.7080825 -0.72679079 1.2778602
0.73035991 -0.60365975 1.2543192
0.87555248 -0.73462433 1.2706796
0.86914361 -0.61382031 1.2737424
0.97467339 -0.72231668 1.2677281
-0.76211762 -0.56264156 1.2461119
-0.77825284 -0.68125182 1.273608
-0.62669188 -0.66284174 1.2545639
-0.63188976 -0.67710823 1.281051
-0.46070892 -0.35082373 1.2565515
-0.42913607 -0.67388695 1.2743167
-0.35318476 -0.64664727 1.265715
-0.33858517 -0.66110438 1.2660154
-0.22946715 -0.68214232 1.2744187
-0.16443029 -0.60213476 1.2448068
-0.17758331 -0.58942294 1.259053
-0.048746411 -0.57999063 1.2513933
-0.019783212 -0.67420918 1.2662547
0.023275137 -0.668823 1.2888532
0.10419898 -0.53110814 1.1971513
0.27284822 -0.67113054 1.2750343
0.33557937 -0.62376875 1.2479315
0.47147059 -0.67000258 1.2720124
0.6135872 -0.5905003 1.2624669
0.62157214 -0.67235851 1.2739981
0.67589104 -0.6697675 1.2708787
0.53853023 -0.67364538 1.256381
0.76803207 -0.65090269 1.2714005
0.97679383 -0.67598182 1.2678711
-0.93328381 -0.62921101 1.2757559
-0.61619806 -0.52115113 1.2569516
-0.50909114 -0.4541083 1.1487057
-0.77857935 -0.53949904 1.2554094
-0.56820512 -0.6188069 1.2725941
-0.15387721 -0.45450759 1.1951239
-0.47015595 -0.62977302 1.2808913
-0.42820561 -0.6297524 1.275041
-0.38045412 -0.62190312 1.2738456
-0.30575264 -0.54069436 1.2574164
-0.27783328 -0.62022102 1.2736782
-0.18063265 -0.62589657 1.2741574
-0.1638065 -0.49331543 1.2570751
-0.092911817 -0.46887547 1.2514085
0.030481895 -0.63130802 1.2772388
0.12568809 -0.58176386 1.2525735
0.21933775 -0.62317526 1.2807405
0.18413474 -0.59800053 1.2583089
0.37744141 -0.62858725 1.2738713
0.42947376 -0.62695879 1.2735426
0.54927731 -0.51103628 1.258469
0.55370569 -0.63251543 1.2571133
0.57744455 -0.47459358 1.2548271
0.67054015 -0.59836006 1.2591767
0.65999532 -0.50894445 1.2545706
0.83210206 -0.62832534 1.2795836
0.90022397 -0.59073794 0.9757883
0.92465699 -0.62428194 1.2671391
0.77806056 -0.55761391 1.2614084
-0.7023285 -0.49023399 1.2683035
-0.48404276 -0.56613535 1.2451005
-0.56769198 -0.41560277 1.194538
-0.55135822 -0.57832688 1.2733949
-0.58066708 -0.57448024 1.2750423
-0.43386337 -0.58305335 1.2638205
-0.41930383 -0.56676799 1.2624912
-0.25335407 -0.59639579 1.2517323
-0.23998798 -0.55372089 1.2626657
0.12750156 -0.6457299 0.76796752
-0.13391495 -0.57364577 1.2793462
-0.026572229 -0.5682165 1.2749122
0.052639231 -0.28986779 1.1031628
0.075843416 -0.57334763 1.2769239
0.077729546 -0.45306009 1.2704035
0.27554104 -0.58014423 1.2779968
0.32231644 -0.48936668 1.1005011
0.47630715 -0.57564414 1.2677102
0.50714445 -0.53777188 1.2542773
0.56768745 -0.19336778 0.84203452
0.73549354 -0.51938063 1.2431786
0.71749693 -0.47320321 1.2666576
0.88088518 -0.55467623 1.2533705
0.76337188 -0.5179556 1.245917
-0.92470062 -0.37967259 1.252617
-0.90341252 -0.53793961 1.2661215
-0.88275445 -0.51927876 1.264889
-0.82530874 -0.52725947 1.2658789
-0.67314291 -0.43982646 1.272033
-0.7242614 -0.52211255 1.2744489
-0.52206999 -0.38665661 1.2640777
-0.4294571 -0.51685035 1.2712866
-0.36864907 -0.51628262 1.2676536
-0.3199102 -0.52722722 1.2878244
-0.21124683 -0.3901293 1.2753088
-0.24848297 -0.34115773 1.2539881
-0.090817824 -0.43930957 1.2604493
0.056360804 -0.34907746 0.94906348
-0.076993406 -0.52527153 1.2749271
-0.042433936 -0.52303141 1.2561949
0.020757675 -0.5183844 1.2769226
0.072317809 -0.52016699 1.2780827
0.080069579 -0.3010233 1.2443796
0.22150747 -0.52865499 1.2820249
0.4209381 -0.47079214 1.2632412
0.40552497 -0.52458531 1.2531574
0.54663223 -0.45429394 1.2658714
0.51589429 -0.49451464 1.2596569
0.63229293 -0.49569449 1.2646079
0.66317809 -0.52700961 1.2655208
0.83095211 -0.52179646 1.2807502
0.86045569 -0.46527278 1.2710124
0.85302472 -0.54804432 1.2743919
0.93003684 -0.41152334 1.2517715
-0.98122931 -0.47658244 1.2820675
-0.86927581 -0.40552488 1.2673075
-0.87827158 -0.4765541 1.2737
-0.69605148 -0.38038462 1.2528731
-0.70151019 -0.52250779 1.2501179
-0.67128015 -0.46634239 1.2690686
-0.57693577 -0.46947712 1.2803086
-0.44428679 -0.4130114 1.1957201
-0.47835243 -0.47853005 1.2775718
-0.40481317 -0.37208363 1.2457761
-0.19975221 -0.39024338 1.1024113
-0.042213928 -0.32134053 1.2479542
-0.27405363 -0.47556949 1.265861
-0.23088104 -0.47342604 1.2861627
-0.23209518 -0.50011337 1.2525997
-0.128354 -0.46836501 1.2771304
-0.025958121 -0.47236988 1.2761211
0.034429248 -0.35373077 1.2596347
0.15425934 -0.49933058 1.2621676
0.10485499 -0.40412676 1.2685972
0.064652696 -0.32670265 1.2020041
0.27123612 -0.47420585 1.2821951
0.21780115 -0.40176636 1.2494693
0.51773417 -0.41721067 1.2470334
0.55018687 -0.46952966 1.2556108
0.66634715 -0.41822845 1.256754
0.82792181 -0.4724704 1.2783966
0.86923766 -0.47579297 1.2772349
0.89648008 -0.2822701 0.94996727
-0.97552049 -0.43092418 1.2802446
-0.86973703 -0.42153561 1.2680976
-0.8325246 -0.42705244 1.2710395
-0.68037963 -0.43174514 1.2840521
-0.62911874 -0.42919666 1.273482
-0.56465036 -0.43698901 1.2489023
-0.52568257 -0.41907486 1.275227
-0.47533202 -0.42567408 1.2710239
-0.42501679 -0.38761556 1.2501978
-0.32218659 -0.42077801 1.2746316
-0.27713808 -0.4264102 1.2759175
-0.22373071 -0.42449948 1.2778467
-0.13872842 -0.3808699 1.2693627
0.025787735 -0.41727495 1.2681879
0.06403783 -0.42441741 1.2761918
0.12256142 -0.42358297 1.2740219
0.10675547 -0.32908347 1.2611551
0.31465918 -0.42039829 1.274748
0.36777443 -0.42328581 1.2663213
0.42185947 -0.42610964 1.2734555
0.39652628 -0.436575 1.2710361
0.52212715 -0.42878392 1.2688873
0.61846954 -0.44583738 1.2727592
0.6922015 -0.41190743 1.2540455
0.82173854 -0.41688639 1.2827456
0.8751871 -0.41906697 1.2754352
0.79866952 -0.3784357 1.252259
0.83789539 -0.39954948 1.2627534
-0.97824681 -0.36839056 1.257319
-0.84318 -0.31214142 1.2706454
-0.82618445 -0.38245153 1.2718496
-0.65904099 -0.32790422 1.2529474
-0.71483767 -0.36902887 1.2751776
-0.43769902 -0.31813464 1.2454199
-0.6277597 -0.37909794 1.2811121
-0.46036965 -0.2746779 1.2643831
-0.3555949 -0.38526887 1.2467692
-0.36766899 -0.33974251 1.2638226
-0.3773559 -0.43029886 1.2781827
-0.22752674 -0.37602848 1.2768348
-0.17651214 -0.36793444 1.2795104
-0.0094787721 -0.24622074 1.2580129
-0.1036667 -0.29478997 1.2553847
0.070181392 -0.15905394 1.2482214
0.12387549 -0.37462282 1.2762605
0.17000975 -0.2996788 1.2766268
0.28678507 -0.39640728 1.261362
0.27499062 -0.23882632 1.2574555
0.36966118 -0.37445745 1.2694075
0.41689205 -0.26777419 1.2607143
0.4741922 -0.37549415 1.2735211
0.523727 -0.38588637 1.2684801
0.61005223 -0.38883823 1.2605708
0.67448616 -0.3737253 1.272808
0.4940922 -0.13210265 1.2597512
0.76856428 -0.37586981 1.2699312
0.73783398 -0.35956854 1.2519798
0.65689141 -0.15093677 1.0500067
0.922647 -0.37153217 1.272037
0.97042245 -0.37923443 1.2727745
-0.91654682 -0.32869279 1.2753215
-0.7603237 -0.32937151 1.2475362
-0.72722876 -0.32640004 1.2717783
-0.67325377 -0.31985584 1.2779717
-0.48049232 -0.27603495 1.271319
-0.55765438 -0.18481956 1.2558088
-0.47376785 -0.33509654 1.2750939
-0.41427523 -0.28776461 1.2517456
-0.28994459 -0.20425218 1.2454296
-0.31183687 -0.27621421 1.2656442
-0.27577594 -0.25560158 1.2591614
-0.22826992 -0.37448525 1.2571024
-0.12477044 -0.32432136 1.2691864
-0.068718195 -0.32735515 1.2757101
-0.026572181 -0.33213946 1.2766985
-0.037446626 -0.34749863 1.2571352
0.12230325 -0.32484663 1.2743938
0.18554868 -0.20609351 1.1956624
0.28556976 -0.32760689 1.2797784
0.21528327 -0.40113562 1.2439374
0.37748209 -0.31989023 1.2742691
0.42238611 -0.31563768 1.2679787
0.47238889 -0.32377741 1.2807859
0.52019364 -0.31810421 1.2771326
0.4986808 -0.36755249 1.2015494
0.69787085 -0.37757108 1.258827
0.69071996 -0.32892743 1.2742295
0.87791288 -0.32252508 1.2796268
0.93094766 -0.36370248 1.261845
0.89872503 -0.22704384 0.89285463
-0.91027343 -0.24489954 1.2615689
-0.55611622 -0.1123148 1.2499233
-0.80980772 -0.17468093 1.2691029
-0.53528559 -0.1760924 1.1023661
-0.54025745 -0.10639244 1.2451003
-0.57520258 -0.10649002 1.244396
-0.43745062 -0.24606609 1.2470685
-0.3903074 -0.17046176 1.2519577
-0.43015346 -0.2710689 1.2647717
-0.29642895 -0.28420594 1.2800467
-0.22759835 -0.35413584 1.2611887
-0.19356711 -0.19843726 1.25227
-0.23324482 -0.28867936 1.2709343
-0.17851219 -0.28028238 1.2684106
-0.12264972 -0.26727659 1.2803128
0.038633239 -0.2327112 1.2573466
0.13101977 -0.27143365 1.2761788
0.17787308 -0.27401459 1.2755425
0.24561882 -0.30847803 1.2763944
0.27347088 -0.27569732 1.2715275
0.4304564 -0.27405956 1.2744454
0.50623274 -0.23269156 1.2648057
0.5734269 -0.26428115 1.2835054
0.64308971 -0.24611349 1.25323
0.72353739 -0.27824333 1.2800932
0.77668387 -0.28293991 1.2797537
0.87739277 -0.26978296 1.2683189
0.93427306 -0.26848722 1.2708169
-0.96814889 -0.21463865 1.2790177
-0.75287044 -0.20905103 1.2642401
-0.7265901 -0.22635007 1.274474
-0.56951767 -0.22261165 1.26346
-0.642708 -0.15742476 1.2662935
-0.52298611 0.014041145 1.2583631
-0.52856946 -0.23285691 1.2802156
-0.46958366 -0.2267033 1.279336
-0.34496957 -0.20388387 1.247435
-0.47291651 -0.1594128 1.2515342
-0.21510683 -0.2647925 1.250115
-0.28152505 -0.22163269 1.265373
-0.11795398 -0.14324403 1.2647665
-0.12445664 -0.24516587 1.2491753
-0.076230466 -0.22842996 1.2792226
-0.042954434 -0.14497513 1.2540461
0.022203233 -0.22715224 1.2750363
0.070816711 -0.22166958 1.2834135
0.16054243 -0.21776667 1.2624428
0.2470036 -0.18828686 1.2627838
0.27814665 -0.22736722 1.2744404
0.33434653 -0.23277473 1.2729566
0.38481984 -0.23066923 1.2835839
0.47757429 -0.22437321 1.2720617
0.42978245 -0.15151867 1.2548105
0.50951689 -0.28722376 1.2642998
0.64209127 -0.31790799 1.2498214
0.68573749 -0.18261598 1.2598703
0.65819281 -0.26504365 1.2617717
0.83323783 -0.22396727 1.2706534
0.80465335 -0.078196339 1.2467966
0.92087954 -0.22034971 1.2725735
0.89170569 -0.16395877 1.2676948
-0.95688903 -0.16330321 1.2604144
-0.93048936 -0.17062263 1.2727202
-0.60953152 -0.1000651 1.2518872
-0.66342044 -0.16166587 1.2586452
-0.73112458 -0.24101011 1.259745
-0.67240715 -0.17774762 1.2764412
-0.63486058 -0.17960766 1.2683889
-0.57675922 -0.2052523 1.2680585
-0.52627009 -0.17965157 1.2716422
-0.27121994 -0.018333811 0.9539628
-0.24771884 -0.16679057 1.257592
-0.37517005 -0.18489675 1.2767452
-0.29330269 -0.13079007 1.2478857
-0.22865808 -0.17477643 1.2655735
-0.29049882 -0.28314942 1.1966939
-0.10207807 -0.21796262 1.2681535
-0.072523296 -0.18122643 1.273584
-0.019677298 -0.17566524 1.2733649
0.063603282 -0.10681446 1.2556574
0.12552667 -0.17506179 1.2684691
0.19372672 -0.23418859 1.2500271
0.40676197 -0.10254914 1.2608194
0.44936794 -0.078114845 1.2479665
0.47280154 -0.16767654 1.2709727
0.5372985 -0.19648428 1.2434565
0.388042 -0.22839001 1.2543453
0.67538136 -0.17586322 1.2801529
0.64757723 -0.19700591 1.2696787
0.73526156 -0.1786202 1.2553673
0.64038825 -0.23424512 1.2432318
0.72214192 -0.090089858 1.2668043
0.92290086 -0.17524372 1.2709359
0.70807713 -0.060477324 1.2466488
-0.96487701 -0.12025619 1.2643758
-0.93392217 -0.11899909 1.274913
-0.67321295 -0.17965759 1.2535553
-0.77677536 -0.12560281 1.274702
-0.51338446 -0.062578827 1.2510335
-0.62506127 -0.12295234 1.278423
-0.40062916 -0.15475234 1.1476669
-0.39559788 -0.074728847 1.2538639
-0.29896858 -0.19013572 1.2439969
-0.41900048 -0.15563476 1.2627236
-0.18785331 -0.26336166 1.2499405
-0.2748172 -0.12297697 1.2749708
-0.22461553 -0.12444305 1.2862414
-0.070466667 -0.11661002 1.26379
-0.12768587 -0.11584032 1.2779516
-0.078791432 -0.1190002 1.2767465
-0.053102568 -0.075266212 1.268387
0.023996286 -0.11899813 1.275635
0.083213687 -0.11942756 1.2651622
0.12464351 -0.12770168 1.2787379
0.17448197 -0.12606482 1.2765799
0.22529872 -0.1266285 1.2691005
0.26927021 -0.1737318 1.2633107
0.32045516 -0.12881584 1.2711247
0.33369067 -0.019130226 1.2512075
0.42592144 -0.11953195 1.2713639
0.52024388 -0.11291586 1.2710179
0.41005555 -0.1666099 1.26434
0.61992371 -0.12887669 1.2783068
0.67769629 -0.11798177 1.2796743
0.7220946 -0.12444765 1.2665633
0.78031439 -0.12486496 1.2772125
