# .PCD v0.7 - Point Cloud Data file format
VERSION 0.7
FIELDS x y z
SIZE 4 4 4
TYPE F F F
COUNT 1 1 1
WIDTH 1473
HEIGHT 1
VIEWPOINT 0 0 0 1 0 0 0
POINTS 1473
DATA ascii
0.99999994 -0.7772001 -0.075623147
0.99999994 -0.72768652 -0.073001325
0.99999994 -0.67516816 -0.076232418
0.99999994 -0.62642497 -0.073567279
0.99999994 -0.57263988 -0.074171364
0.99999994 -0.52578664 -0.076342784
0.99999994 -0.47281924 -0.072508
0.99999994 -0.42157745 -0.076680228
0.99999994 -0.37532568 -0.080010138
0.99999994 -0.32145268 -0.075154506
0.99999994 -0.27665362 -0.074021332
0.99999994 -0.22354522 -0.076405369
0.99999994 -0.17297378 -0.075470224
0.99999994 -0.12496448 -0.078329884
0.99999994 -0.074410066 -0.074769057
0.99999994 -0.025035853 -0.078725055
0.99999994 0.025190007 -0.073830597
0.99999994 0.075548954 -0.076983519
0.99999994 0.12415682 -0.075100072
0.99999994 0.17394395 -0.078561179
0.99999994 0.22747236 -0.074661307
0.99999994 0.2771365 -0.076606967
0.99999994 0.3283101 -0.074113861
0.99999994 0.37334901 -0.076063022
0.99999994 0.4225964 -0.076126993
0.99999994 0.47791809 -0.073615007
0.99999994 0.52894616 -0.071347624
0.99999994 0.57612604 -0.076386914
0.99999994 0.62686878 -0.074905626
0.99999994 0.6719076 -0.075889178
0.99999994 0.72131211 -0.075271808
0.99999994 0.77280337 -0.078360751
0.99999994 0.82656437 -0.071720786
0.99999994 0.8778857 -0.075082056
0.99999994 0.92478669 -0.074818589
0.99999994 0.97654319 -0.076956429
0.99999994 -0.97472674 -0.022328421
0.99999994 -0.92628086 -0.027141288
0.99999994 -0.87045443 -0.022185409
0.99999994 -0.82749212 -0.026394058
0.99999994 -0.77147776 -0.024850003
0.99999994 -0.72752631 -0.026808407
0.99999994 -0.67141414 -0.024760196
0.99999994 -0.62449503 -0.021620665
0.99999994 -0.57294011 -0.024968501
0.99999994 -0.52439731 -0.025447704
0.99999994 -0.47404176 -0.023196047
0.99999994 -0.42172271 -0.026597871
0.99999994 -0.37432542 -0.024754543
0.99999994 -0.32332534 -0.025193561
0.99999994 -0.27285138 -0.022260273
0.99999994 -0.22492303 -0.025289424
0.99999994 -0.17415999 -0.026022241
0.99999994 -0.12571691 -0.024535749
0.99999994 -0.073026285 -0.022373475
0.99999994 -0.024109403 -0.028382242
0.99999994 0.0240163 -0.026275219
0.99999994 0.073599607 -0.025080688
0.99999994 0.12287714 -0.028390054
0.99999994 0.17742315 -0.024092069
0.99999994 0.2264539 -0.022267165
0.99999994 0.27658314 -0.024158828
0.99999994 0.32739469 -0.025827516
0.99999994 0.37592828 -0.023171414
0.99999994 0.42299125 -0.025699748
0.99999994 0.47615942 -0.025184931
0.99999994 0.52531052 -0.023065707
0.99999994 0.57724029 -0.024174459
0.99999994 0.62813395 -0.023805141
0.99999994 0.67573452 -0.023561716
0.99999994 0.72213739 -0.023341281
0.99999994 0.77381152 -0.02637686
0.99999994 0.8280012 -0.026997942
0.99999994 0.87319905 -0.024652956
0.99999994 0.92494047 -0.022005748
0.99999994 0.97575545 -0.027296571
0.99999994 -0.97574502 0.025565069
0.99999994 -0.92537671 0.026776109
0.99999994 -0.87586409 0.024027206
0.99999994 -0.82636005 0.027315941
0.99999994 -0.77360666 0.024733715
0.99999994 -0.72776204 0.022907108
0.99999994 -0.67842615 0.025723062
0.99999994 -0.6282959 0.024795661
0.99999994 -0.5760529 0.023086799
0.99999994 -0.52173042 0.023677452
0.99999994 -0.47760272 0.025973409
0.99999994 -0.42405048 0.024902435
0.99999994 -0.37228119 0.029970625
0.99999994 -0.32426041 0.024979131
0.99999994 -0.27770415 0.022115886
0.99999994 -0.22681533 0.022757325
0.99999994 -0.17386726 0.02703041
0.99999994 -0.12400389 0.026080843
0.99999994 -0.075072668 0.022874253
0.99999994 -0.02651782 0.025529098
0.99999994 0.025428029 0.023428142
0.99999994 0.076381244 0.027775474
0.99999994 0.1267145 0.021395344
0.99999994 0.1793175 0.02354037
0.99999994 0.2270997 0.026331147
0.99999994 0.27982217 0.023664819
0.99999994 0.32401517 0.023138961
0.99999994 0.37564468 0.023332303
0.99999994 0.42486951 0.025497813
0.99999994 0.47727132 0.024964677
0.99999994 0.52573061 0.023537515
0.99999994 0.57445067 0.026134277
0.99999994 0.62363267 0.026850648
0.99999994 0.67397398 0.023841571
0.99999994 0.72504228 0.025117217
0.99999994 0.77906859 0.028800353
0.99999994 0.82132339 0.023988208
0.99999994 0.87470818 0.023194078
0.99999994 0.92020154 0.024151366
0.99999994 0.97402644 0.024489727
0.99999994 -0.97347152 0.075644232
0.99999994 -0.92510295 0.075651206
0.99999994 -0.87623483 0.074742444
0.99999994 -0.82398957 0.076048516
0.99999994 -0.77553481 0.073737465
0.99999994 -0.73014677 0.076094337
0.99999994 -0.67567712 0.074495398
0.99999994 -0.62470454 0.076292999
0.99999994 -0.57853007 0.074118346
0.99999994 -0.5262264 0.075405389
0.99999994 -0.47726202 0.076433323
0.99999994 -0.42429104 0.076484829
0.99999994 -0.3762728 0.078076243
0.99999994 -0.3211951 0.074692346
0.99999994 -0.27623239 0.076068841
0.99999994 -0.22565566 0.075148031
0.99999994 -0.17691611 0.074993372
0.99999994 -0.12564933 0.074089177
0.99999994 -0.070873246 0.076171704
0.99999994 -0.026242333 0.075013958
0.99999994 0.026328554 0.077732474
0.99999994 0.074660763 0.073245816
0.99999994 0.12404712 0.073908173
0.99999994 0.17439224 0.075725973
0.99999994 0.22255567 0.077978358
0.99999994 0.27447975 0.072663367
0.99999994 0.32684454 0.075992621
0.99999994 0.37564051 0.075485818
0.99999994 0.42659596 0.075706586
0.99999994 0.47263232 0.074258961
0.99999994 0.52564996 0.074949235
0.99999994 0.57826036 0.075162776
0.99999994 0.62365282 0.074462622
0.99999994 0.6752435 0.076308675
0.99999994 0.72496861 0.075779356
0.99999994 0.77643657 0.072186403
0.99999994 0.82340688 0.07603915
0.99999994 0.87369853 0.072564945
0.99999994 0.92750806 0.074921742
0.99999994 0.97296119 0.076469801
0.99999994 -0.97390383 0.12723999
0.99999994 -0.92492354 0.12376038
0.99999994 -0.87388831 0.12465668
0.99999994 -0.82503396 0.126514
0.99999994 -0.77654433 0.12554729
0.99999994 -0.72507703 0.12637281
0.99999994 -0.67652935 0.12371578
0.99999994 -0.62314242 0.12818383
0.99999994 -0.57530159 0.12445629
0.99999994 -0.52404082 0.12451342
0.99999994 -0.47437996 0.12532288
0.99999994 -0.42634189 0.12470002
0.99999994 -0.37300467 0.1266863
0.99999994 -0.32365912 0.12352695
0.99999994 -0.27665362 0.12253521
0.99999994 -0.22469273 0.12481611
0.99999994 -0.17359763 0.1250533
0.99999994 -0.12690069 0.12403909
0.99999994 -0.07847742 0.12717667
0.99999994 -0.02781181 0.12747671
0.99999994 0.022415617 0.12704884
0.99999994 0.073951997 0.12417901
0.99999994 0.12525228 0.12345675
0.99999994 0.17645836 0.12578374
0.99999994 0.22543912 0.13023104
0.99999994 0.27621579 0.12496085
0.99999994 0.32258147 0.12369943
0.99999994 0.37814796 0.12573244
0.99999994 0.42628783 0.12478692
0.99999994 0.4770481 0.12437075
0.99999994 0.52308565 0.1246445
0.99999994 0.57559961 0.12490623
0.99999994 0.62412876 0.12610203
0.99999994 0.67853969 0.12564352
0.99999994 0.72572559 0.12476514
0.99999994 0.77713519 0.12700684
0.99999994 0.82377583 0.12312159
0.99999994 0.87822002 0.12308178
0.99999994 0.92515635 0.12210573
0.99999994 0.97424436 0.12508333
0.99999994 -0.97533041 0.17526893
0.99999994 -0.92242754 0.17726141
0.99999994 -0.87729889 0.17442675
0.99999994 -0.82372683 0.17144613
0.99999994 -0.77312738 0.17177367
0.99999994 -0.72768146 0.17473175
0.99999994 -0.6770255 0.17663506
0.99999994 -0.62591094 0.17350593
0.99999994 -0.57249397 0.17580625
0.99999994 -0.52367699 0.17819598
0.99999994 -0.47514299 0.17438851
0.99999994 -0.42755699 0.17775138
0.99999994 -0.37659276 0.17293657
0.99999994 -0.32101828 0.17564704
0.99999994 -0.2766318 0.17827724
0.99999994 -0.22396809 0.17805983
0.99999994 -0.17366409 0.17527479
0.99999994 -0.1241157 0.17390944
0.99999994 -0.075152613 0.1730272
0.99999994 -0.023023902 0.17543055
0.99999994 0.027802682 0.17658331
0.99999994 0.073372476 0.17430551
0.99999994 0.12123074 0.17701669
0.99999994 0.17575142 0.17687707
0.99999994 0.22370212 0.17419769
0.99999994 0.27378824 0.1736099
0.99999994 0.32903916 0.18002473
0.99999994 0.37375212 0.17265651
0.99999994 0.42505491 0.17521054
0.99999994 0.47424567 0.17516358
0.99999994 0.52296627 0.17408854
0.99999994 0.57413948 0.17498396
0.99999994 0.62289125 0.17930178
0.99999994 0.67686003 0.174679
0.99999994 0.72420907 0.17428654
0.99999994 0.77662891 0.17445581
0.99999994 0.82389593 0.17204784
0.99999994 0.87646997 0.17604807
0.99999994 0.92586595 0.17560551
0.99999994 0.97495747 0.17548151
0.99999994 -0.97177106 0.22413255
0.99999994 -0.92454737 0.22235514
0.99999994 -0.87276757 0.22487828
0.99999994 -0.82293099 0.22073627
0.99999994 -0.77481532 0.22714373
0.99999994 -0.72421038 0.22536047
0.99999994 -0.67645609 0.22829649
0.99999994 -0.62448829 0.22528867
0.99999994 -0.57442069 0.22520696
0.99999994 -0.52474034 0.22706543
0.99999994 -0.47511193 0.22491476
0.99999994 -0.42668176 0.22294059
0.99999994 -0.37676993 0.22380045
0.99999994 -0.32572964 0.22836332
0.99999994 -0.27438444 0.22128138
0.99999994 -0.22778404 0.22650287
0.99999994 -0.17656925 0.22806118
0.99999994 -0.12379161 0.2241163
0.99999994 -0.075759821 0.22614075
0.99999994 -0.023774991 0.22513747
0.99999994 0.024777159 0.22452596
0.99999994 0.076085359 0.22484973
0.99999994 0.12575996 0.22336407
0.99999994 0.17459755 0.22622211
0.99999994 0.22486375 0.23061469
0.99999994 0.2705228 0.22517574
0.99999994 0.32921121 0.22767591
0.99999994 0.3753489 0.22499485
0.99999994 0.42485282 0.2280945
0.99999994 0.4792254 0.2268908
0.99999994 0.52073872 0.22155122
0.99999994 0.57679832 0.22190878
0.99999994 0.62119883 0.22327565
0.99999994 0.67637956 0.22544487
0.99999994 0.72422892 0.22460939
0.99999994 0.77618217 0.22473226
0.99999994 0.82444721 0.22431523
0.99999994 0.87261528 0.22778133
0.99999994 0.9231863 0.22260123
0.99999994 0.97592819 0.22697958
0.99999994 -0.97547382 0.27776688
0.99999994 -0.92592108 0.27671146
0.99999994 -0.87618434 0.27575538
0.99999994 -0.82455152 0.27065259
0.99999994 -0.77587044 0.27128944
0.99999994 -0.72643977 0.27446905
0.99999994 -0.67657065 0.27565846
0.99999994 -0.62723756 0.27378407
0.99999994 -0.57409406 0.27674466
0.99999994 -0.52581364 0.27414015
0.99999994 -0.47445688 0.27600157
0.99999994 -0.42431238 0.27456814
0.99999994 -0.37328461 0.27374884
0.99999994 -0.32700518 0.27697244
0.99999994 -0.27544892 0.2749154
0.99999994 -0.22838521 0.27241302
0.99999994 -0.17289998 0.27298352
0.99999994 -0.12326409 0.27374014
0.99999994 -0.075501233 0.27656832
0.99999994 -0.020701699 0.27483168
0.99999994 0.026415356 0.27767372
0.99999994 0.074441358 0.27463785
0.99999994 0.12389601 0.27445552
0.99999994 0.17230554 0.27406704
0.99999994 0.2238939 0.27496159
0.99999994 0.27340123 0.27624288
0.99999994 0.32545254 0.27998227
0.99999994 0.37548277 0.27476186
0.99999994 0.42492929 0.27484131
0.99999994 0.47477162 0.27362624
0.99999994 0.52574533 0.27282536
0.99999994 0.57344288 0.27642593
0.99999994 0.62483597 0.27257374
0.99999994 0.67420703 0.27755216
0.99999994 0.72513682 0.27217898
0.99999994 0.77762085 0.27363545
0.99999994 0.82791525 0.27331224
0.99999994 0.87562126 0.27495056
0.99999994 0.92486715 0.27713779
0.99999994 0.97498429 0.27648893
0.99999994 -0.97432935 0.32740918
0.99999994 -0.92698652 0.32275546
0.99999994 -0.87186998 0.32434851
0.99999994 -0.82500774 0.32003662
0.99999994 -0.77545387 0.32588816
0.99999994 -0.72606498 0.32343063
0.99999994 -0.67455375 0.3247036
0.99999994 -0.62314838 0.32257774
0.99999994 -0.57415849 0.32356533
0.99999994 -0.52430165 0.323295
0.99999994 -0.47531095 0.32275233
0.99999994 -0.42414597 0.32769319
0.99999994 -0.37799898 0.32659495
0.99999994 -0.32426846 0.32504028
0.99999994 -0.27478689 0.3226994
0.99999994 -0.225246 0.32605335
0.99999994 -0.17563833 0.32470974
0.99999994 -0.12490132 0.32691488
0.99999994 -0.075526364 0.3219251
0.99999994 -0.02392528 0.32094026
0.99999994 0.025201259 0.3240388
0.99999994 0.076493047 0.32694569
0.99999994 0.12404568 0.32355168
0.99999994 0.17492343 0.32540697
0.99999994 0.22455843 0.32558832
0.99999994 0.27517125 0.32393566
0.99999994 0.32384762 0.33038458
0.99999994 0.37863028 0.32495016
0.99999994 0.42319626 0.32486287
0.99999994 0.47446245 0.32757899
0.99999994 0.5259949 0.32929361
0.99999994 0.57634968 0.32543305
0.99999994 0.62273735 0.32604524
0.99999994 0.67515415 0.32348543
0.99999994 0.72488469 0.32527995
0.99999994 0.77645242 0.3251633
0.99999994 0.82376295 0.32376891
0.99999994 0.87292862 0.32378697
0.99999994 0.92498165 0.32942808
0.99999994 0.97731394 0.32436055
0.99999994 -0.97457886 0.37532505
0.99999994 -0.92365658 0.37384692
0.99999994 -0.87587607 0.37901425
0.99999994 -0.82208216 0.37569475
0.99999994 -0.7757619 0.3783474
0.99999994 -0.72799879 0.37629151
0.99999994 -0.67596799 0.37649843
0.99999994 -0.62605208 0.3756429
0.99999994 -0.57385659 0.37448701
0.99999994 -0.5248732 0.37451154
0.99999994 -0.47468016 0.37703565
0.99999994 -0.4260962 0.37627473
0.99999994 -0.37584585 0.37695035
0.99999994 -0.32642409 0.37663218
0.99999994 -0.27657494 0.37382606
0.99999994 -0.22528565 0.3743495
0.99999994 -0.17480792 0.37565303
0.99999994 -0.12592396 0.37783673
0.99999994 -0.073728055 0.38071728
0.99999994 -0.026350809 0.37722388
0.99999994 0.025344528 0.37345624
0.99999994 0.074252449 0.37282991
0.99999994 0.1263939 0.37732345
0.99999994 0.17615828 0.37467179
0.99999994 0.22807835 0.37299824
0.99999994 0.2789261 0.3755953
0.99999994 0.32564047 0.37816024
0.99999994 0.37170374 0.37236378
0.99999994 0.42473397 0.37851024
0.99999994 0.47610945 0.37470561
0.99999994 0.52631277 0.37514398
0.99999994 0.57227808 0.37534276
0.99999994 0.62595004 0.37234771
0.99999994 0.67578489 0.37292182
0.99999994 0.72813618 0.37624416
0.99999994 0.77339309 0.37516746
0.99999994 0.82637072 0.37467974
0.99999994 0.87522656 0.37770119
0.99999994 0.92347831 0.38037312
0.99999994 0.97281969 0.37651122
0.99999994 -0.97768277 0.42951587
0.99999994 -0.92467475 0.42601338
0.99999994 -0.87544751 0.42625815
0.99999994 -0.82379919 0.42470959
0.99999994 -0.7753427 0.42189452
0.99999994 -0.72346181 0.42383096
0.99999994 -0.67615229 0.42530206
0.99999994 -0.62294304 0.42728895
0.99999994 -0.57459897 0.42339826
0.99999994 -0.52381086 0.42586979
0.99999994 -0.47526762 0.4230223
0.99999994 -0.42625076 0.42354932
0.99999994 -0.37270349 0.42471403
0.99999994 -0.32785195 0.42684671
0.99999994 -0.27424175 0.42647803
0.99999994 -0.22683997 0.42384121
0.99999994 -0.1729524 0.42163712
0.99999994 -0.12725495 0.42552984
0.99999994 -0.075699739 0.42476052
0.99999994 -0.024557421 0.423749
0.99999994 0.023004716 0.4256748
0.99999994 0.073817275 0.42471713
0.99999994 0.12514479 0.425565
0.99999994 0.1729496 0.42543107
0.99999994 0.22469652 0.42528889
0.99999994 0.27482718 0.42603287
0.99999994 0.3234058 0.42502204
0.99999994 0.37493521 0.42385668
0.99999994 0.42378315 0.42821029
0.99999994 0.47228608 0.42454049
0.99999994 0.52574992 0.42538199
0.99999994 0.57506937 0.42348453
0.99999994 0.62331134 0.42307147
0.99999994 0.67483795 0.42534164
0.99999994 0.72460806 0.42217502
0.99999994 0.77351874 0.42825693
0.99999994 0.82328546 0.42430985
0.99999994 0.87488538 0.42682639
0.99999994 0.9239012 0.42436817
0.99999994 0.97278863 0.42644784
0.99999994 -0.97487509 0.47069091
0.99999994 -0.92759132 0.47940683
0.99999994 -0.87170881 0.47444257
0.99999994 -0.82210308 0.47567451
0.99999994 -0.77651441 0.47419423
0.99999994 -0.72266024 0.4759877
0.99999994 -0.6773603 0.47363484
0.99999994 -0.62578654 0.47567868
0.99999994 -0.5768972 0.47311044
0.99999994 -0.52426302 0.47533971
0.99999994 -0.47213465 0.47488409
0.99999994 -0.42413217 0.47672179
0.99999994 -0.3738918 0.47591752
0.99999994 -0.32694167 0.47573096
0.99999994 -0.27734059 0.47667462
0.99999994 -0.22483595 0.47119492
0.99999994 -0.17477609 0.47273862
0.99999994 -0.12649913 0.47466704
0.99999994 -0.073638484 0.47488865
0.99999994 -0.02480356 0.47036299
0.99999994 0.026928356 0.47647291
0.99999994 0.074991077 0.47230566
0.99999994 0.12281647 0.47578406
0.99999994 0.17480549 0.47736016
0.99999994 0.22425783 0.47603044
0.99999994 0.27715123 0.47492817
0.99999994 0.32554981 0.47191983
0.99999994 0.37416568 0.47438323
0.99999994 0.42579025 0.47702235
0.99999994 0.47408423 0.47666317
0.99999994 0.52406383 0.47306293
0.99999994 0.57485038 0.47548264
0.99999994 0.62404889 0.47143117
0.99999994 0.67701244 0.47290519
0.99999994 0.72541356 0.47209346
0.99999994 0.7727384 0.47342145
0.99999994 0.82207435 0.47716859
0.99999994 0.87579733 0.47314408
0.99999994 0.92289656 0.47618711
0.99999994 0.973593 0.47340012
0.99999994 -0.97913986 0.5256452
0.99999994 -0.92227501 0.52486038
0.99999994 -0.87459761 0.5230819
0.99999994 -0.82648337 0.52550155
0.99999994 -0.77631044 0.52231389
0.99999994 -0.72551805 0.52629364
0.99999994 -0.67712212 0.52738017
0.99999994 -0.62767196 0.52774167
0.99999994 -0.57695311 0.5240441
0.99999994 -0.52820843 0.52635491
0.99999994 -0.47594967 0.52853429
0.99999994 -0.4229244 0.52336961
0.99999994 -0.37718916 0.5244261
0.99999994 -0.32585016 0.52497047
0.99999994 -0.27709031 0.5246464
0.99999994 -0.22501943 0.5256927
0.99999994 -0.17292415 0.52489614
0.99999994 -0.12586223 0.52382195
0.99999994 -0.073863745 0.5276379
0.99999994 -0.028048668 0.52220684
0.99999994 0.023685282 0.52703172
0.99999994 0.078235127 0.52865368
0.99999994 0.12815908 0.52305138
0.99999994 0.17560975 0.52586472
0.99999994 0.22645602 0.52727532
0.99999994 0.27465594 0.52327842
0.99999994 0.32147047 0.52501285
0.99999994 0.37566048 0.5235647
0.99999994 0.4247106 0.52675474
0.99999994 0.47628212 0.52294952
0.99999994 0.52415681 0.52520615
0.99999994 0.57025641 0.52330267
0.99999994 0.62380821 0.52435112
0.99999994 0.67648345 0.52645081
0.99999994 0.7209813 0.52720261
0.99999994 0.77403873 0.52543551
0.99999994 0.82371587 0.52172291
0.99999994 0.87766808 0.52376866
0.99999994 0.92819631 0.52628505
0.99999994 0.97619677 0.52123427
0.99999994 -0.97412968 0.57500428
0.99999994 -0.92648554 0.57337731
0.99999994 -0.87500608 0.57613492
0.99999994 -0.82636404 0.57396561
0.99999994 -0.77441394 0.57126063
0.99999994 -0.72516531 0.57427067
0.99999994 -0.67741036 0.57349545
0.99999994 -0.62681079 0.57271665
0.99999994 -0.57439607 0.57555723
0.99999994 -0.52935272 0.5767116
0.99999994 -0.47467569 0.57405889
0.99999994 -0.42242751 0.5770098
0.99999994 -0.37509042 0.57626182
0.99999994 -0.32430923 0.57529664
0.99999994 -0.27544814 0.57446939
0.99999994 -0.22359324 0.57323372
0.99999994 -0.1739694 0.57403994
0.99999994 -0.12596238 0.57604086
0.99999994 -0.075070255 0.57224941
0.99999994 -0.025674731 0.57408869
0.99999994 0.023528976 0.57316929
0.99999994 0.075178213 0.57628334
0.99999994 0.12784542 0.57493049
0.99999994 0.17592853 0.57411593
0.99999994 0.22798514 0.57558835
0.99999994 0.27133402 0.57413763
0.99999994 0.32437366 0.57356328
0.99999994 0.37097055 0.57546878
0.99999994 0.42951784 0.57448816
0.99999994 0.47664177 0.57350737
0.99999994 0.52402949 0.57610673
0.99999994 0.5741607 0.57390636
0.99999994 0.62606138 0.57784814
0.99999994 0.67733765 0.57440591
0.99999994 0.72550923 0.57636124
0.99999994 0.77496344 0.57276684
0.99999994 0.8266477 0.57432312
0.99999994 0.87892908 0.57556218
0.99999994 0.92668271 0.57599998
0.99999994 0.97338277 0.57570279
0.99999994 -0.97237986 0.62313527
0.99999994 -0.92241341 0.62470615
0.99999994 -0.8755551 0.62450546
0.99999994 -0.82572818 0.62391257
0.99999994 -0.77310038 0.62712067
0.99999994 -0.72650504 0.62468684
0.99999994 -0.67547816 0.62335277
0.99999994 -0.62344909 0.62110823
0.99999994 -0.57449645 0.62306631
0.99999994 -0.52653897 0.62649471
0.99999994 -0.47764876 0.62329262
0.99999994 -0.42536092 0.6247955
0.99999994 -0.37636721 0.62470281
0.99999994 -0.32442266 0.62649894
0.99999994 -0.27575177 0.6276803
0.99999994 -0.22301804 0.62262547
0.99999994 -0.1730196 0.62511343
0.99999994 -0.12712894 0.62406898
0.99999994 -0.076223873 0.62396508
0.99999994 -0.023765888 0.6258769
0.99999994 0.02232852 0.62403768
0.99999994 0.076431155 0.62473291
0.99999994 0.12694708 0.62578702
0.99999994 0.17627749 0.62695277
0.99999994 0.22576591 0.62559748
0.99999994 0.27371722 0.62336963
0.99999994 0.32484177 0.62539226
0.99999994 0.37596297 0.62794721
0.99999994 0.42469692 0.62551373
0.99999994 0.47330609 0.62329996
0.99999994 0.52456129 0.62432766
0.99999994 0.57801217 0.62542254
0.99999994 0.62500829 0.6234712
0.99999994 0.67278951 0.62495708
0.99999994 0.72297263 0.62442303
0.99999994 0.77494252 0.6242047
0.99999994 0.82142782 0.62581652
0.99999994 0.87527186 0.62616771
0.99999994 0.92570579 0.62194103
0.99999994 0.97444922 0.62541831
0.99999994 -0.97598159 0.67231369
0.99999994 -0.92735541 0.6760121
0.99999994 -0.8755483 0.6702196
0.99999994 -0.8284567 0.67551863
0.99999994 -0.77280539 0.6745888
0.99999994 -0.72553825 0.67579478
0.99999994 -0.67345518 0.67582834
0.99999994 -0.6232239 0.67465651
0.99999994 -0.57320654 0.67445213
0.99999994 -0.52365738 0.67555082
0.99999994 -0.47694695 0.67198288
0.99999994 -0.42406127 0.67455554
0.99999994 -0.37726444 0.67515677
0.99999994 -0.32583234 0.67003703
0.99999994 -0.27545446 0.67689961
0.99999994 -0.22593889 0.67505443
0.99999994 -0.17482068 0.67743963
0.99999994 -0.12292136 0.67553312
0.99999994 -0.071955733 0.67546678
0.99999994 -0.02752885 0.67779982
0.99999994 0.027301854 0.67845148
0.99999994 0.075731598 0.67736441
0.99999994 0.12459308 0.67676806
0.99999994 0.17372629 0.66967666
0.99999994 0.22040893 0.67514706
0.99999994 0.2753928 0.67802697
0.99999994 0.32732934 0.67977333
0.99999994 0.37444666 0.67405623
0.99999994 0.43001443 0.67314899
0.99999994 0.47370455 0.67493069
0.99999994 0.52499813 0.67273235
0.99999994 0.57515675 0.6770063
0.99999994 0.62473351 0.67595792
0.99999994 0.67676741 0.67619944
0.99999994 0.72587556 0.67521816
0.99999994 0.77452487 0.67161602
0.99999994 0.82426387 0.67157024
0.99999994 0.87483531 0.67749202
0.99999994 0.92571896 0.67376727
0.99999994 0.97643036 0.67521662
0.99999994 -0.97675866 0.72427326
0.99999994 -0.92302626 0.72596139
0.99999994 -0.87399381 0.72265905
0.99999994 -0.82829124 0.72433883
0.99999994 -0.77479607 0.72549313
0.99999994 -0.72775096 0.72407085
0.99999994 -0.67473102 0.72084033
0.99999994 -0.61949944 0.72261858
0.99999994 -0.57579637 0.72297782
0.99999994 -0.52277243 0.72532535
0.99999994 -0.47305617 0.72237307
0.99999994 -0.42418078 0.72412109
0.99999994 -0.3764118 0.72455496
0.99999994 -0.32388067 0.72184807
0.99999994 -0.27461776 0.72832984
0.99999994 -0.22398318 0.72092044
0.99999994 -0.17570043 0.72648668
0.99999994 -0.12418056 0.72483391
0.99999994 -0.07240615 0.72207987
0.99999994 -0.02351176 0.7248081
0.99999994 0.023757137 0.72591448
0.99999994 0.07313773 0.72215223
0.99999994 0.12312475 0.72397482
0.99999994 0.1773667 0.72357076
0.99999994 0.22591278 0.72472721
0.99999994 0.27521157 0.72263795
0.99999994 0.3270407 0.72461724
0.99999994 0.37585187 0.72562021
0.99999994 0.42770514 0.72651446
0.99999994 0.47440317 0.72429097
0.99999994 0.52672011 0.72398651
0.99999994 0.57339078 0.72401249
0.99999994 0.6263504 0.72867638
0.99999994 0.67444706 0.72764695
0.99999994 0.72678244 0.72688365
0.99999994 0.77567208 0.72671032
0.99999994 0.82941639 0.72540289
0.99999994 0.87413222 0.72496712
0.99999994 0.9289465 0.72464341
0.99999994 0.97647578 0.72600681
0.99999994 -0.97590399 0.77546728
0.99999994 -0.92676669 0.77690089
0.99999994 -0.87724924 0.77652568
0.99999994 -0.82519758 0.77825266
0.99999994 -0.77589756 0.77628332
0.99999994 -0.72459334 0.7731806
0.99999994 -0.67533708 0.77782661
0.99999994 -0.62577969 0.77357304
0.99999994 -0.57309598 0.77439016
0.99999994 -0.52552372 0.77674621
0.99999994 -0.47672182 0.77476364
0.99999994 -0.42552251 0.77640367
0.99999994 -0.37741002 0.77484632
0.99999994 -0.32605562 0.77672023
0.99999994 -0.27599314 0.77100462
0.99999994 -0.22452946 0.77653712
0.99999994 -0.17730875 0.77542531
0.99999994 -0.12684678 0.77663887
0.99999994 -0.07535284 0.77467006
0.99999994 -0.026167477 0.77356082
0.99999994 0.026410475 0.77435243
0.99999994 0.075497456 0.77703691
0.99999994 0.12347454 0.77779865
0.99999994 0.17495473 0.77602053
0.99999994 0.2261904 0.77382469
0.99999994 0.27208921 0.77684051
0.99999994 0.32563147 0.77294445
0.99999994 0.37275094 0.7766251
0.99999994 0.42642877 0.77692562
0.99999994 0.47339553 0.77272779
0.99999994 0.52541697 0.77338064
0.99999994 0.57460678 0.77526826
0.99999994 0.62185544 0.77488911
0.99999994 0.67565393 0.77470315
0.99999994 0.72237581 0.77402323
0.99999994 0.77304202 0.77469379
0.99999994 0.82360011 0.77726769
0.99999994 0.87887013 0.77647442
0.99999994 0.92462009 0.77322769
0.99999994 0.97594619 0.77615577
0.99999994 -0.97407287 0.82262623
0.99999994 -0.92551547 0.82487792
0.99999994 -0.87716091 0.82448423
0.99999994 -0.82938153 0.82313687
0.99999994 -0.77414143 0.82279134
0.99999994 -0.72467035 0.82425237
0.99999994 -0.67397588 0.82378167
0.99999994 -0.62666386 0.82527173
0.99999994 -0.57356763 0.82376593
0.99999994 -0.52291083 0.82710266
0.99999994 -0.47538751 0.82530797
0.99999994 -0.42785016 0.82580024
0.99999994 -0.37429655 0.82452905
0.99999994 -0.32415763 0.82394332
0.99999994 -0.27467173 0.82401896
0.99999994 -0.22143945 0.82353896
0.99999994 -0.17563052 0.82136142
0.99999994 -0.12555635 0.82438421
0.99999994 -0.07644625 0.82720476
0.99999994 -0.025058426 0.82737416
0.99999994 0.025726188 0.82323444
0.99999994 0.075887181 0.82324433
0.99999994 0.12344033 0.82260883
0.99999994 0.17348461 0.82565421
0.99999994 0.22458974 0.82384586
0.99999994 0.27162236 0.8258794
0.99999994 0.32513627 0.82722116
0.99999994 0.37506199 0.81877798
0.99999994 0.42305097 0.82402086
0.99999994 0.4720144 0.82282567
0.99999994 0.52544492 0.82570565
0.99999994 0.57392883 0.82702643
0.99999994 0.62361622 0.82649446
0.99999994 0.6749059 0.82586509
0.99999994 0.72326565 0.82664871
0.99999994 0.77291954 0.82485789
0.99999994 0.82473749 0.82268244
0.99999994 0.87200886 0.82708722
0.99999994 0.9265461 0.82514298
0.99999994 0.97136617 0.82531434
0.99999994 -0.97423917 0.87744462
0.99999994 -0.92591238 0.87854987
0.99999994 -0.87671125 0.87604308
0.99999994 -0.82228148 0.87495857
0.99999994 -0.77759355 0.87410545
0.99999994 -0.72319466 0.87742782
0.99999994 -0.67660576 0.87686735
0.99999994 -0.62562692 0.87357044
0.99999994 -0.57456779 0.87476373
0.99999994 -0.52627295 0.87587613
0.99999994 -0.4743962 0.87410992
0.99999994 -0.42090797 0.87250251
0.99999994 -0.3739807 0.875525
0.99999994 -0.32538256 0.87242705
0.99999994 -0.27516538 0.87366486
0.99999994 -0.2266437 0.87293011
0.99999994 -0.17391433 0.87726724
0.99999994 -0.12389594 0.87488121
0.99999994 -0.072408393 0.87389249
0.99999994 -0.024149718 0.87711185
0.99999994 0.024177963 0.87344307
0.99999994 0.073188677 0.87316924
0.99999994 0.12316935 0.87417364
0.99999994 0.17731974 0.87680262
0.99999994 0.22649977 0.87440258
0.99999994 0.27224219 0.87345064
0.99999994 0.32867092 0.87616897
0.99999994 0.37646925 0.87469554
0.99999994 0.42459384 0.87293965
0.99999994 0.47457114 0.87669557
0.99999994 0.52335221 0.87706673
0.99999994 0.57656837 0.87620699
0.99999994 0.62400526 0.87552178
0.99999994 0.67400026 0.87703955
0.99999994 0.72188455 0.87692904
0.99999994 0.77563429 0.87489897
0.99999994 0.82735366 0.87500095
0.99999994 0.8770287 0.87379873
0.99999994 0.92807508 0.87569582
0.99999994 0.97502375 0.87505835
0.99999994 -0.97475129 0.92758232
0.99999994 -0.9215526 0.92602229
0.99999994 -0.87625426 0.92725426
0.99999994 -0.82806903 0.92521107
0.99999994 -0.77572393 0.92277467
0.99999994 -0.72462863 0.9241432
0.99999994 -0.67378581 0.92744201
0.99999994 -0.62685084 0.92175144
0.99999994 -0.57319188 0.92634052
0.99999994 -0.52320814 0.92324835
0.99999994 -0.47660935 0.92571592
0.99999994 -0.42172503 0.92728186
0.99999994 -0.37644398 0.92537075
0.99999994 -0.32368708 0.92502838
0.99999994 -0.27163523 0.92761785
0.99999994 -0.22592664 0.9285056
0.99999994 -0.17241846 0.92331731
0.99999994 -0.12176862 0.92388153
0.99999994 -0.075248897 0.92601085
0.99999994 -0.023346411 0.92488337
0.99999994 0.028973637 0.92754936
0.99999994 0.076336034 0.92530328
0.99999994 0.12469674 0.9239676
0.99999994 0.17579922 0.92416507
0.99999994 0.22697966 0.92742366
0.99999994 0.27579013 0.92864043
0.99999994 0.32194477 0.92507362
0.99999994 0.3776066 0.92262518
0.99999994 0.42390439 0.92535442
0.99999994 0.47619104 0.92280895
0.99999994 0.52525216 0.92900372
0.99999994 0.57332301 0.92270833
0.99999994 0.62569755 0.92635238
0.99999994 0.67574656 0.92564631
0.99999988 0.72565186 0.92675364
0.99999994 0.77572173 0.92604816
0.99999994 0.82369572 0.92538762
0.99999994 0.87614501 0.92241728
0.99999994 0.92760384 0.92503607
0.99999994 0.9781884 0.92316484
0.99999994 -0.97573614 0.97683686
0.99999994 -0.92436886 0.97224307
0.99999994 -0.87704033 0.97505516
0.99999994 -0.8254419 0.97711766
0.99999994 -0.77564567 0.97433352
0.99999994 -0.72188485 0.97437078
0.99999994 -0.67362213 0.9732219
0.99999988 -0.62323821 0.97384745
0.99999994 -0.5723424 0.97553414
0.99999994 -0.52717996 0.97492927
0.99999994 -0.47679648 0.97614998
0.99999994 -0.42316034 0.97344559
0.99999994 -0.37724155 0.97325283
0.99999994 -0.32819459 0.97629899
0.99999994 -0.27387205 0.97536623
0.99999994 -0.22349228 0.9728269
0.99999994 -0.17185834 0.97946304
0.99999994 -0.12296132 0.97521198
0.99999994 -0.076579861 0.97395021
0.99999994 -0.02120804 0.97595268
0.99999994 0.02543579 0.97416455
0.99999994 0.073796503 0.97381926
0.99999994 0.12330058 0.97478282
0.99999988 0.17406553 0.97391707
0.99999994 0.22392118 0.97331297
0.99999994 0.27681169 0.97492945
0.99999988 0.32626584 0.97650373
0.99999994 0.37557989 0.97625959
0.99999994 0.42675087 0.97548676
0.99999994 0.47387233 0.97832453
0.99999994 0.52410311 0.97354841
0.99999994 0.57450718 0.97694278
0.99999994 0.62298167 0.97519332
0.99999994 0.67757785 0.97280824
0.99999988 0.72450089 0.97612005
0.99999994 0.77518022 0.97651243
0.99999994 0.82630503 0.97501534
0.99999994 0.87786907 0.97740018
0.99999988 0.92501712 0.97815144
0.99999994 0.97539562 0.97366422
0.99999988 -0.97227174 1.0000001
0.99999982 -0.97008616 0.99070209
0.99999988 -0.96135503 0.99197537
0.99999988 -0.97532469 1
0.99999988 -0.94938117 0.98146087
0.99999988 -0.94973379 0.99571288
0.99999988 -0.97495013 1
0.99999994 -0.93501371 0.98567116
0.99999988 -0.95310873 0.98204303
1 -0.95427191 0.98181146
0.99999988 -0.97386944 1
0.99999988 -0.97248238 0.98348421
0.99999988 -0.97445029 1
0.99999988 -0.97429013 1
0.99999994 -0.94114661 0.99945623
0.99999988 -0.95837188 0.98204958
0.99999988 -0.95855916 0.97710186
0.99999994 -0.96390021 0.98454875
0.99999994 -0.95951539 0.98287743
0.99999988 -0.97527003 0.97667176
0.99999988 -0.97485161 0.99999994
0.99999988 -0.96532941 0.97835696
0.99999994 -0.97562701 0.9945305
0.99999994 -0.97029763 1
0.99999988 -0.97262198 1
0.99999988 -0.94391972 0.96542603
0.99999988 -0.97533959 1
0.99999988 -0.96011215 0.99685502
0.99999988 -0.94292331 0.97145236
0.99999988 -0.97417343 1
0.99999988 -0.95006406 0.9966222
0.99999988 -0.9483853 0.98785311
0.99999988 -0.95753866 0.98131025
0.99999988 -0.93165702 0.97805989
0.99999988 -0.97490907 1
0.99999982 -0.92689461 1.0000001
0.99999982 -0.92028356 0.99480975
0.99999988 -0.92566407 1
0.99999994 -0.92647272 1
0.99999982 -0.89443278 0.98891425
0.99999982 -0.92414969 1
1 -0.92505503 1
1 -0.92531687 1
0.99999988 -0.92471296 1
0.99999994 -0.92369431 1
0.99999988 -0.92485452 1
0.99999994 -0.92510724 1
0.99999988 -0.92451388 1
0.99999988 -0.92246342 1
0.99999994 -0.92670608 1
0.99999988 -0.92119813 0.97864223
0.99999988 -0.92420453 1
0.99999988 -0.92827117 1
0.99999988 -0.91035819 0.98347956
0.99999988 -0.92645776 1
0.99999988 -0.92620325 0.99999994
0.99999988 -0.92348951 1
0.99999988 -0.91898835 0.98841649
0.99999988 -0.91213948 0.9988066
0.99999988 -0.92510742 1
0.99999988 -0.89267945 0.97159523
0.99999988 -0.90732658 0.98547471
0.99999988 -0.87496454 1.0000001
0.99999988 -0.85729671 0.98320848
0.99999982 -0.87473899 1
0.99999988 -0.8547383 0.97753406
0.99999982 -0.87324309 1
0.99999988 -0.85837209 0.99086863
0.99999988 -0.85040277 0.99081868
0.99999988 -0.85887235 0.99533445
0.99999988 -0.87936515 1
1 -0.84764862 0.97946358
1 -0.87397885 1
0.99999988 -0.85140461 0.98261535
0.99999994 -0.85760188 0.97202933
0.99999988 -0.87313908 1
0.99999988 -0.87559664 1
0.99999982 -0.86873585 0.98394501
0.99999988 -0.87493896 1
0.99999988 -0.87455148 1
0.99999994 -0.8643136 0.98298723
0.99999994 -0.87520689 0.98852128
0.99999988 -0.86737388 0.96831268
0.99999988 -0.84808981 0.97454929
0.99999988 -0.87779689 1
0.99999988 -0.86904502 0.9689784
0.99999988 -0.87201583 0.98734903
0.99999988 -0.87101126 0.9823668
0.99999988 -0.87446076 1
0.99999988 -0.85088348 0.9738518
0.99999988 -0.87848616 1
0.99999988 -0.87622929 1
0.99999988 -0.85111761 0.99871302
0.99999988 -0.80237967 0.99239236
0.99999988 -0.82636702 1
0.99999982 -0.7992847 0.98988575
0.99999988 -0.80285895 0.98577183
0.99999988 -0.82408279 1
0.99999994 -0.79993641 0.99082184
0.99999994 -0.81086147 0.99948335
1 -0.80721033 0.98681164
1 -0.78836662 0.97650969
0.99999988 -0.82491267 1
0.99999994 -0.82079917 0.97168219
0.99999994 -0.78494 0.99025238
0.99999988 -0.82267523 1
0.99999994 -0.82003546 0.97436464
0.99999988 -0.80804437 0.97452235
0.99999988 -0.82419693 1
0.99999988 -0.81171113 0.97029138
0.99999988 -0.80009192 0.98524714
0.99999994 -0.81980205 0.99094194
0.99999994 -0.82957155 0.97890019
0.99999988 -0.80713969 0.97678989
0.99999988 -0.8251726 0.98341566
0.99999994 -0.82665294 1
0.99999988 -0.82304811 0.99999994
0.99999988 -0.80324721 0.99212009
0.99999988 -0.8061347 0.98440397
0.99999988 -0.82288182 0.98815268
0.99999988 -0.81146967 0.96480793
0.99999988 -0.82169288 0.984043
0.99999988 -0.82408959 0.99999994
0.99999988 -0.80173457 0.96894425
0.99999988 -0.76703709 0.97314829
0.99999988 -0.78660285 0.96525764
0.99999988 -0.77469897 1.0000001
0.99999988 -0.76937443 0.99878818
0.99999988 -0.77743614 1.0000001
0.99999988 -0.77369601 1
0.99999982 -0.76990634 1
0.99999988 -0.77363789 1
0.99999988 -0.77171296 1
0.99999988 -0.76670247 0.98914719
0.99999994 -0.75700814 0.99199921
0.99999988 -0.77685499 1
0.99999988 -0.77485651 1
0.99999988 -0.75532705 0.99948686
0.99999988 -0.77596289 1
0.99999988 -0.7510578 0.98315859
0.99999994 -0.7733444 0.99999994
0.99999994 -0.77845865 1
0.99999994 -0.77639091 1
0.99999988 -0.78078264 0.99972475
0.99999988 -0.76819944 0.97851521
0.99999988 -0.76773661 0.9913159
0.99999988 -0.76945823 0.97502363
0.99999988 -0.74427718 0.97533971
0.99999988 -0.77734023 1
0.99999988 -0.71567166 0.96500993
0.99999988 -0.761702 0.99102235
0.99999988 -0.72418737 1.0000001
0.99999994 -0.72393674 1
0.99999988 -0.72375554 1
0.99999988 -0.72911865 0.99485749
0.99999982 -0.71542418 0.98563999
0.99999988 -0.72424287 1
0.99999994 -0.72111052 1
0.99999994 -0.72411966 1
0.99999988 -0.72574157 0.99222136
1 -0.71289206 0.98949337
1 -0.72219729 0.97536194
0.99999988 -0.72209656 1
0.99999994 -0.72330183 1
0.99999988 -0.73261851 0.99963069
0.99999994 -0.7224955 1
0.99999988 -0.72806942 1
0.99999988 -0.72367573 1
0.99999988 -0.73159182 0.98578054
0.99999994 -0.7264719 1
0.99999994 -0.72455049 1
0.99999994 -0.72135448 0.97051859
0.99999988 -0.70500004 0.98935723
0.99999988 -0.71153861 0.9955954
0.99999988 -0.72759241 0.99588555
0.99999988 -0.67348719 0.98578602
0.99999988 -0.70313394 0.99568272
0.99999988 -0.72763252 1
0.99999988 -0.70450538 0.97022194
0.99999988 -0.72053945 0.98604411
0.99999988 -0.72644538 1
0.99999988 -0.67662591 1.0000001
0.99999988 -0.65230441 0.98614866
0.99999988 -0.67057258 0.98631346
0.99999982 -0.67341584 1
0.99999994 -0.67423236 1
0.99999988 -0.66808921 0.98942959
0.99999994 -0.65139925 0.99511355
0.99999988 -0.65441114 0.97495568
0.99999994 -0.67450565 1
0.99999988 -0.67816859 1
0.99999988 -0.67447227 0.98002034
0.99999994 -0.67218894 1
0.99999994 -0.67087775 1
0.99999988 -0.67400324 1
0.99999988 -0.65643728 0.98189694
0.99999988 -0.65656132 0.99569201
0.99999988 -0.67237145 0.98851734
0.99999988 -0.65655041 0.97378236
0.99999988 -0.6592477 0.98076153
0.99999988 -0.66622984 0.98483849
0.99999988 -0.68493897 0.99041188
0.99999988 -0.6765101 1
0.99999988 -0.67375982 1
0.99999988 -0.66354144 0.96740794
0.99999988 -0.67261308 1
0.99999988 -0.65643597 0.9829489
0.99999988 -0.65412199 0.97422224
0.99999988 -0.66403568 0.99459225
0.99999988 -0.62426418 1.0000001
0.99999988 -0.62187594 1
0.99999982 -0.61256474 0.99579769
0.99999988 -0.62350196 0.97602904
0.99999988 -0.62380493 1
0.99999988 -0.62467736 1
0.99999988 -0.61082417 0.97464895
0.99999988 -0.62029094 0.99881071
0.99999988 -0.6175459 0.9996841
0.99999988 -0.61558837 0.99381357
0.99999988 -0.62904447 1
0.99999988 -0.62504828 1
0.99999994 -0.62624604 1
0.99999988 -0.62594944 1
0.99999988 -0.62445641 1
0.99999988 -0.63231951 0.96905082
0.99999988 -0.62655717 1
0.99999988 -0.61932009 0.97012609
0.99999988 -0.62554002 0.99989134
0.99999988 -0.61181879 0.99777293
0.99999988 -0.62721038 1
0.99999988 -0.60949188 0.97288853
0.99999988 -0.62686998 1
0.99999988 -0.61293536 0.9879933
0.99999988 -0.62438887 1
0.99999988 -0.60729086 0.97380549
0.99999988 -0.63174963 0.98747408
0.99999988 -0.57866073 0.99985629
0.99999994 -0.57478809 0.99166024
0.99999988 -0.56808048 0.97955239
0.99999982 -0.55827332 0.98931265
0.99999988 -0.57656384 1
0.99999994 -0.57961535 0.99975044
0.99999994 -0.57339031 1
0.99999988 -0.56037319 0.99474585
0.99999988 -0.57240218 1
0.99999988 -0.57603502 1
0.99999994 -0.57408583 0.9835583
0.99999988 -0.57690102 0.9868955
0.99999988 -0.57756931 1
0.99999988 -0.5728094 1
0.99999994 -0.54966497 0.98432076
0.99999988 -0.57201004 1
0.99999988 -0.57416314 0.98417151
0.99999988 -0.58439595 0.9767192
0.99999988 -0.57802862 0.97835708
0.99999994 -0.57251728 1
0.99999988 -0.56285703 0.97585201
0.99999988 -0.56433266 0.99548066
0.99999994 -0.57396227 1
0.99999988 -0.58235413 0.98182046
0.99999988 -0.57433093 1
0.99999988 -0.56150186 0.99402273
0.99999988 -0.55206448 0.98921907
0.99999988 -0.56200272 0.97315508
0.99999988 -0.57553905 1
0.99999988 -0.57980376 1
0.99999988 -0.54883361 0.97501737
0.99999988 -0.58188063 0.99851942
0.99999982 -0.51703304 0.98421216
0.99999982 -0.52993292 1
0.99999988 -0.52359658 1
0.99999982 -0.52449584 0.99960959
0.99999994 -0.51384157 0.9996447
0.99999994 -0.52666676 1
0.99999988 -0.50809532 0.98467612
0.99999994 -0.50568742 0.97292835
0.99999988 -0.52338392 1
0.99999988 -0.52453452 1
0.99999988 -0.52400148 1
0.99999988 -0.52322149 1
0.99999994 -0.52489644 1
0.99999994 -0.52711546 1
0.99999988 -0.51838273 0.99727094
0.99999994 -0.52470237 1
0.99999988 -0.51836848 0.98243457
0.99999994 -0.50009328 0.99179143
0.99999994 -0.52657318 1
0.99999988 -0.53416306 0.97537535
0.99999988 -0.49321291 0.9841187
0.99999988 -0.51508367 0.98505235
0.99999988 -0.52343833 0.98942965
0.99999988 -0.53210485 0.99985754
0.99999988 -0.51263052 0.99390066
0.99999988 -0.52440083 1
0.99999988 -0.52785933 1
0.99999988 -0.53072208 0.99888796
0.99999988 -0.50620186 0.96168047
0.99999988 -0.46641913 0.97216934
0.99999988 -0.5155856 0.99888355
0.99999982 -0.47224557 1.0000001
0.99999988 -0.47160938 0.99965793
0.99999994 -0.45664117 0.97978294
0.99999988 -0.47078472 1
0.99999994 -0.47481927 0.99163842
0.99999994 -0.47471797 1
0.99999988 -0.47528884 1
0.99999988 -0.45478511 0.99596483
0.99999988 -0.47686702 1
0.99999994 -0.47478354 1
0.99999988 -0.47851577 1
0.99999988 -0.45787746 0.97143549
0.99999988 -0.47445777 1
0.99999994 -0.47087651 0.97017711
0.99999994 -0.48011947 0.99928844
0.99999988 -0.45017171 0.97014791
0.99999994 -0.4530786 0.98712438
0.99999994 -0.48387387 0.9997291
0.99999994 -0.449031 0.96710426
0.99999988 -0.48489222 1
0.99999994 -0.48078963 0.9922539
0.99999988 -0.4793241 0.99956053
0.99999988 -0.47340447 1
0.99999988 -0.47703761 0.9713707
0.99999988 -0.47367102 0.97288096
0.99999988 -0.47129232 1
0.99999988 -0.47387061 0.98706537
0.99999988 -0.46177849 0.97963923
0.99999988 -0.47416553 1
0.99999988 -0.47292557 1
0.99999988 -0.47514376 1
0.99999988 -0.46008378 0.99189216
0.99999988 -0.47000852 0.96972454
0.99999994 -0.43841782 0.97964323
0.99999994 -0.41969007 0.98839569
0.99999994 -0.42684793 1
0.99999982 -0.41461572 0.98948944
0.99999988 -0.42937022 0.99917942
0.99999988 -0.40865365 0.99962711
0.99999988 -0.41443196 0.9869858
0.99999988 -0.4234426 1
0.99999994 -0.42946023 0.99988216
0.99999994 -0.40212274 0.97033817
0.99999988 -0.41125211 0.99316305
0.99999994 -0.43043822 0.99966729
0.99999994 -0.43097305 0.99961191
0.99999994 -0.42346826 1
0.99999994 -0.42356914 0.9793458
0.99999994 -0.4099485 0.96760851
0.99999988 -0.42394122 1
0.99999994 -0.41332975 0.97544479
0.99999988 -0.42780378 0.9834587
0.99999988 -0.43787017 0.97289002
0.99999988 -0.43049923 0.97290188
0.99999988 -0.40462396 0.96345514
0.99999988 -0.43306351 0.98536098
0.99999988 -0.41253534 0.99817199
0.99999988 -0.41584638 0.96493268
0.99999988 -0.42352808 1
0.99999988 -0.3993004 0.96916425
0.99999988 -0.43517905 0.98766327
0.99999988 -0.44265935 0.97417843
0.99999982 -0.38156319 0.98828685
0.99999994 -0.37564889 1.0000001
0.99999982 -0.3718839 0.9837051
0.99999994 -0.363747 0.98705304
0.99999988 -0.3747313 1
0.99999982 -0.36337781 0.99876863
0.99999988 -0.37679064 1
0.99999994 -0.38163835 0.99940342
0.99999988 -0.3767212 1
1 -0.3760294 1
0.99999988 -0.35763621 0.98393357
0.99999988 -0.375624 1
0.99999994 -0.36600217 0.97830564
0.99999994 -0.38742369 0.97293776
0.99999988 -0.37489766 1
0.99999988 -0.36868611 0.99071884
0.99999994 -0.3721582 1
0.99999988 -0.36064428 0.97570515
0.99999994 -0.37363219 1
0.99999994 -0.3714819 0.98632896
0.99999988 -0.34376824 0.98500723
0.99999988 -0.37012279 0.99663687
0.99999988 -0.38355273 0.97180396
0.99999988 -0.37594444 1
0.99999994 -0.36739245 0.98341316
0.99999988 -0.36932248 0.96376038
0.99999988 -0.37481984 1
0.99999988 -0.37709036 1
0.99999988 -0.38724339 0.99068546
0.99999988 -0.38567659 0.98288232
0.99999988 -0.37826273 0.99999273
0.99999982 -0.33164546 0.98714477
0.99999982 -0.32171157 1.0000001
0.99999994 -0.3254647 0.99801874
0.99999982 -0.28876576 0.97600526
0.99999988 -0.32800278 1
0.99999988 -0.32382151 0.97590649
0.99999982 -0.32674101 1
0.99999988 -0.31899133 0.99071133
1 -0.32660234 1
0.99999988 -0.33373022 0.99953395
1 -0.33159202 0.99918371
0.99999988 -0.32616866 1
0.99999994 -0.3215625 0.97744173
1 -0.3134495 0.98580635
0.99999988 -0.31479916 0.99726832
0.99999988 -0.32587731 1
0.99999994 -0.3126055 0.97360456
0.99999994 -0.31315365 0.9792158
0.99999988 -0.32379469 1
0.99999994 -0.30775058 0.98376191
0.99999994 -0.32351094 0.96865511
0.99999994 -0.33137041 0.99976593
0.99999994 -0.32217249 0.99043226
0.99999988 -0.3246735 0.99952781
0.99999988 -0.32746205 0.99981278
0.99999988 -0.32272178 1
0.99999988 -0.32675993 0.97135252
0.99999988 -0.31809428 0.97352439
0.99999988 -0.3071903 0.9939509
0.99999988 -0.32486376 1
0.99999988 -0.32357422 1
0.99999988 -0.33063236 1
0.99999988 -0.32874402 0.97873259
0.99999988 -0.27688083 1.0000001
0.99999982 -0.26268649 0.99680048
0.99999994 -0.27467436 1
0.99999982 -0.26560137 0.99124169
0.99999994 -0.27245474 0.97834462
0.99999988 -0.27366027 1
0.99999994 -0.27596119 1
0.99999988 -0.2806747 0.98385531
0.99999994 -0.2652944 0.98719501
0.99999988 -0.2731266 1
0.99999988 -0.27841616 0.98619157
0.99999988 -0.26449755 0.98126799
0.99999994 -0.26079398 0.9939242
0.99999994 -0.27560484 1
0.99999988 -0.26461649 0.98695672
0.99999988 -0.29355749 0.99867052
0.99999988 -0.25616261 0.98928845
0.99999994 -0.2521356 0.96845526
0.99999988 -0.28517884 0.98247319
0.99999994 -0.25097087 0.98149204
0.99999988 -0.27353948 1
0.99999988 -0.27542648 0.98423457
0.99999994 -0.26032785 0.98002213
0.99999994 -0.27801216 0.96709788
0.99999988 -0.27676657 1
0.99999988 -0.26932847 0.99626708
0.99999988 -0.25851128 0.97936851
0.99999988 -0.28289759 0.99943066
0.99999988 -0.27525675 1
0.99999988 -0.2692582 0.97121114
0.99999988 -0.28129768 0.99973679
0.99999988 -0.24953848 0.9788577
0.99999988 -0.28517747 0.9931947
0.99999988 -0.23298919 0.99826515
0.99999994 -0.23263936 1.0000001
0.99999988 -0.22706303 0.98643184
0.99999982 -0.23005228 0.99685645
0.99999988 -0.22628511 1
0.99999982 -0.23668706 0.99966019
0.99999988 -0.21784315 0.99439496
0.99999994 -0.21230336 0.99137574
0.99999988 -0.22527622 1
1 -0.21143958 0.99090475
0.99999994 -0.21083198 0.97566074
0.99999988 -0.22528388 1
0.99999988 -0.23789011 1
0.99999994 -0.22745948 1
0.99999994 -0.24468853 0.97460651
0.99999994 -0.22414814 1
0.99999994 -0.22582793 1
0.99999988 -0.23407277 0.99939299
0.99999994 -0.22584639 0.9998306
0.99999988 -0.22198108 0.97134918
0.99999994 -0.22834019 0.99999332
0.99999988 -0.20926911 0.9763127
0.99999988 -0.22528921 1
0.99999994 -0.23006745 0.97541249
0.99999988 -0.22403207 1
0.99999988 -0.22466521 0.98006654
0.99999988 -0.23108259 0.99980223
0.99999988 -0.25379074 0.97542214
0.99999988 -0.22548947 0.99999994
0.99999988 -0.23436947 0.97245049
0.99999988 -0.23653176 0.98558289
0.99999988 -0.21513733 0.99650693
0.99999994 -0.17113909 1
0.99999982 -0.18757562 0.99639565
0.99999988 -0.17209858 1
0.99999988 -0.17772794 0.97850603
0.99999982 -0.16851327 0.97459275
0.99999988 -0.193591 0.98469341
0.99999982 -0.18801525 0.98214912
0.99999994 -0.173646 1
0.99999988 -0.16873391 0.99859315
0.99999994 -0.17587054 0.97205186
0.99999988 -0.17504074 1
0.99999988 -0.18123968 0.97817141
0.99999988 -0.1746559 0.99999529
0.99999994 -0.15748984 0.97322631
0.99999988 -0.16739808 0.97501594
0.99999994 -0.17075992 1
0.99999988 -0.17495063 1
0.99999994 -0.16938402 0.99790221
0.99999994 -0.17890564 1
0.99999994 -0.161709 0.98689348
0.99999994 -0.18369354 0.98438025
0.99999988 -0.17765106 0.98270512
0.99999988 -0.19689445 0.98223466
0.99999988 -0.18432333 0.99702519
0.99999988 -0.18174654 0.99972779
0.99999988 -0.1883093 0.97612548
0.99999988 -0.17473339 1
0.99999988 -0.16925213 0.99430084
0.99999988 -0.18739057 0.99974644
0.99999988 -0.18507101 0.99404299
0.99999988 -0.18077344 0.96654707
0.99999988 -0.18733299 0.97292143
0.99999988 -0.18727978 0.98032409
0.99999988 -0.18907171 0.99276954
0.99999994 -0.12743437 1.0000001
0.99999982 -0.13321456 1.0000001
0.99999982 -0.13466264 0.97974318
0.99999988 -0.13792177 0.98448151
0.99999982 -0.14078836 0.99939954
0.99999988 -0.13182577 0.99860907
0.99999988 -0.12733108 1
0.99999988 -0.1617112 0.98939097
1 -0.11661306 0.97769701
0.99999988 -0.12931319 0.97819942
0.99999994 -0.1075782 0.97148162
0.99999994 -0.13339929 0.99993348
0.99999988 -0.11835168 0.97247875
0.99999994 -0.11433537 0.97342968
0.99999988 -0.12742904 1
0.99999994 -0.13130586 0.97983086
0.99999994 -0.12871929 0.97018397
0.99999988 -0.1351251 0.98539734
0.99999988 -0.12638681 1
0.99999994 -0.12482352 0.97902274
0.99999988 -0.13653 1
0.99999988 -0.11898389 0.98415548
0.99999988 -0.1468409 0.97247314
0.99999994 -0.11916017 0.9806363
0.99999988 -0.12177955 0.99999994
0.99999988 -0.13435516 0.98295575
0.99999988 -0.12644877 1
0.99999988 -0.13862728 0.99712193
0.99999988 -0.13057949 0.99956799
0.99999988 -0.12765461 1
0.99999988 -0.12809791 0.98651582
0.99999988 -0.12776357 0.98126203
0.99999988 -0.11590244 0.96885562
0.99999994 -0.069690906 0.98931414
0.99999982 -0.088167839 1.0000001
0.99999994 -0.056352705 0.9995212
0.99999988 -0.076350488 0.98829567
0.99999988 -0.073540874 1
0.99999988 -0.078421161 1
0.99999988 -0.084982984 0.99952638
0.99999988 -0.069693893 0.99209785
0.99999988 -0.059203416 0.97790235
0.99999988 -0.084396765 0.99999553
0.99999994 -0.075444564 1
0.99999988 -0.075592548 1
0.99999994 -0.083083779 0.9722802
0.99999994 -0.09551616 0.99964213
0.99999994 -0.081128284 0.9898029
0.99999988 -0.073359527 1
0.99999988 -0.075822778 1
0.99999994 -0.087491058 0.97006732
0.99999988 -0.074854642 1
0.99999988 -0.10217216 0.97029167
0.99999994 -0.089717433 0.97509956
0.99999988 -0.084631965 0.99226761
0.99999988 -0.091983125 1
0.99999994 -0.076125391 0.99999994
0.99999988 -0.064243957 0.98652673
0.99999988 -0.073337883 1
0.99999988 -0.079224236 0.9939751
0.99999988 -0.081269294 0.99952829
0.99999988 -0.074809074 1
0.99999988 -0.073629566 0.99999994
0.99999988 -0.065116785 0.96813917
0.99999988 -0.076435313 0.98869997
0.99999988 -0.08573214 0.97955459
0.99999988 -0.086652391 0.96540153
0.99999988 -0.024528718 1.0000001
0.99999988 -0.012639197 0.99113852
0.99999988 -0.026626727 1
0.99999982 -0.03865882 0.98490804
0.99999994 -0.029449798 0.98042399
0.99999988 -0.013950015 0.99485511
