# .PCD v0.7 - Point Cloud Data file format
VERSION 0.7
FIELDS x y z rgb
SIZE 4 4 4 4
TYPE F F F F
COUNT 1 1 1 1
WIDTH 1032
HEIGHT 1
VIEWPOINT 0 0 0 1 0 0 0
POINTS 1032
DATA ascii
-1.0893173 -0.3261556 2.702333 7.9317038e-39
-1.0901927 -0.34612963 2.6431456 9.4093591e-39
-1.1810194 -0.32465622 2.7010221 6.9171876e-39
-1.190466 -0.34464869 2.6412427 7.8405872e-39
-1.0882119 -0.38014394 2.5425723 1.0887023e-38
-1.0919497 -0.4102751 2.4531357 1.1626032e-38
-1.0710198 -0.4253439 2.4098372 1.171895e-38
-1.1907718 -0.37785637 2.5429137 9.5037197e-39
-1.1875795 -0.40755826 2.4551826 1.0795907e-38
-0.89184499 -0.44918951 2.3504779 1.1624595e-38
-0.88938677 -0.48423836 2.2468712 1.1163258e-38
-0.98915344 -0.4479793 2.3479588 1.1718229e-38
-0.98575634 -0.48346937 2.2431059 1.1348727e-38
-0.89239323 -0.51250118 2.1630118 1.0702275e-38
-0.99076277 -0.51150686 2.1597872 1.0887749e-38
-0.88716143 -0.52928585 2.1136491 1.0241655e-38
-0.89012998 -0.553213 2.0426283 9.5962839e-39
-0.98813725 -0.52895671 2.1082926 1.0427128e-38
-0.99123293 -0.54924929 2.0480227 9.6895613e-39
-1.0862985 -0.44481146 2.3512461 1.1810787e-38
-1.0875801 -0.47883651 2.2504361 1.1535279e-38
-1.1881927 -0.44155633 2.3544936 1.1535639e-38
-1.1810813 -0.47759008 2.2482641 1.1723641e-38
-1.0877701 -0.50856644 2.1624103 1.0613684e-38
-1.1590168 -0.50039476 2.1821349 9.973732e-39
-1.0747913 -0.52621567 2.1109736 1.0244541e-38
-1.0744965 -0.54319221 2.0607338 9.6935368e-39
-1.2716802 -0.34360147 2.639251 6.4565668e-39
-1.3820007 -0.35105872 2.6102567 5.3509479e-39
-1.2911361 -0.37595358 2.5422537 7.6572777e-39
-1.2901092 -0.40488029 2.4566817 9.5066078e-39
-1.3684734 -0.37505242 2.5400722 7.3828615e-39
-1.3403342 -0.39365476 2.4867654 6.83258e-39
-1.2655342 -0.43711486 2.3627934 1.117083e-38
-0.8874979 -0.58503002 1.9485999 8.2122662e-39
-0.89038807 -0.61273164 1.8664091 7.1041096e-39
-0.89243937 -0.62896049 1.8182359 6.5509358e-39
-0.98073763 -0.58162385 1.9528381 7.7527328e-39
-0.9535526 -0.6103788 1.8694141 6.6463852e-39
-0.9439075 -0.62564278 1.8248305 9.8786539e-39
-0.87585968 -0.64942485 1.7586913 6.1843197e-39
-0.85112745 -0.67256224 1.6917447 6.0921367e-39
0.45825589 0.85833132 2.2904394 8.9451439e-39
0.44701913 0.74853617 2.3599656 1.0419555e-38
0.47365782 0.7705422 2.2978258 1.0050773e-38
0.64791644 0.73860967 1.9671314 1.0050417e-38
0.55147892 0.82867938 2.1189444 8.6685542e-39
0.54789394 0.746692 2.1613619 1.0050777e-38
0.57638979 0.76959777 2.0951636 8.9440719e-39
0.50451815 0.85133046 2.2020104 8.9451453e-39
0.51756322 0.77233285 2.2102666 9.8667429e-39
0.61629492 0.76347876 2.0189202 9.1280974e-39
0.44345009 0.53856444 2.4575047 1.1340794e-38
0.54402208 0.53735399 2.2592263 1.0970518e-38
0.4580344 0.66507119 2.3741601 1.1064564e-38
0.49756214 0.66717827 2.2951176 1.106095e-38
0.46951014 0.56851882 2.3930836 1.143296e-38
0.51541537 0.57457906 2.2997315 1.087726e-38
0.45287514 0.45993423 2.472759 1.1801049e-38
0.43976024 0.32041556 2.5588062 1.152338e-38
0.46381682 0.36465195 2.4921918 1.1892161e-38
0.55302799 0.46479863 2.2726912 1.189288e-38
0.54274565 0.3314175 2.3504949 1.1799967e-38
0.56395566 0.36876643 2.292474 1.1892164e-38
0.48964259 0.46878439 2.3962672 1.1985082e-38
0.52671099 0.47298673 2.321183 1.198508e-38
0.51082236 0.3698045 2.3970547 1.1892522e-38
0.53501797 0.40223333 2.3352528 1.1985077e-38
0.64228225 0.54636139 2.0611148 1.1525185e-38
0.74577898 0.54280156 1.8580679 9.1252108e-39
0.65434128 0.66216195 1.9873755 9.4983107e-39
0.70347852 0.6478886 1.896397 7.5611529e-39
0.67029929 0.56324238 1.9984593 1.1248238e-38
0.71324176 0.56136435 1.9143845 9.6754951e-39
0.65287256 0.46347955 2.0758975 1.1338598e-38
0.64118779 0.34830379 2.148628 1.1891445e-38
0.66537386 0.36509672 2.0935829 1.179961e-38
0.75483388 0.45715296 1.8770782 1.0416289e-38
0.74245387 0.34814763 1.9485233 1.1338629e-38
0.76534343 0.36913088 1.8942357 1.096983e-38
0.69224995 0.468532 1.9958829 1.069359e-38
0.72905326 0.47298947 1.9212139 1.0785794e-38
0.71332669 0.36758199 1.9977241 1.1431182e-38
0.73647815 0.3861492 1.9439596 1.1431181e-38
0.55581301 0.6624493 2.1820116 1.0788698e-38
0.59886879 0.66801006 2.0945065 7.9291955e-39
0.56643134 0.56988984 2.2009096 1.1243158e-38
0.61459589 0.57430071 2.103802 1.1060948e-38
0.52978522 0.68850291 2.2222331 1.078798e-38
0.62952292 0.68429989 2.0268934 1.0327361e-38
0.58994585 0.46861807 2.19807 1.1615923e-38
0.62600321 0.47480619 2.1241288 1.1062013e-38
0.61044216 0.36917093 2.2004101 1.1892164e-38
0.63588661 0.39362413 2.1395767 1.1892164e-38
0.83951348 0.32705551 1.7657559 1.0600345e-38
0.84611106 0.36004153 1.7384998 1.0416673e-38
0.81554323 0.63647866 1.6797967 8.943702e-39
0.75561106 0.52662057 1.8456057 1.0141168e-38
0.81971169 0.59921819 1.6876137 9.2199315e-39
0.78771991 0.45662373 1.8123004 1.0225056e-38
0.8307786 0.50855881 1.7048061 9.864938e-39
0.80694807 0.37145874 1.8109926 1.032373e-38
0.45655572 0.001292646 2.6631279 1.3457318e-38
0.44788256 -0.28101623 2.8019285 1.2630789e-38
0.46942869 -0.29816175 2.7667272 1.2446404e-38
0.51079899 -0.32336578 2.6958122 1.2077985e-38
0.84843892 0.053518698 1.8659896 1.0506336e-38
0.859326 -0.036816362 1.8833977 1.0505975e-38
0.84678775 -0.16005951 1.9612918 9.2155889e-39
0.87264508 -0.13127209 1.8977741 9.860601e-39
0.85313624 -0.20886447 1.9697744 9.0326424e-39
0.89552397 -0.22385414 1.8924466 8.7553324e-39
0.64056975 0.12176435 2.2474732 1.1614126e-38
0.64596695 0.053683512 2.2661433 1.1430455e-38
0.65763557 -0.036162645 2.2817957 9.9549602e-39
0.44673967 0.25700882 2.5723338 1.1431898e-38
0.48190933 0.27162451 2.4965165 1.1799603e-38
0.45725992 0.16927804 2.589345 1.1615929e-38
0.50504249 0.16799444 2.4954469 1.1799243e-38
0.55066246 0.26225063 2.3646519 1.1707406e-38
0.58378178 0.26958859 2.2960229 1.1707049e-38
0.56279969 0.1709422 2.380008 1.1615207e-38
0.60438704 0.17112181 2.2977257 1.1522653e-38
0.52451116 0.27279633 2.4118006 1.1799244e-38
0.53200573 0.18907401 2.4330652 1.1707047e-38
0.54627323 0.075799979 2.4536762 1.1614847e-38
0.5640828 -0.039728764 2.4682577 1.1615569e-38
0.46959946 0.082810171 2.6022155 1.0325187e-38
0.51670444 0.10027567 2.5015774 1.1707406e-38
0.49031693 -0.0060086548 2.5995386 1.1061671e-38
0.52764493 -0.0021951844 2.5241094 7.3741986e-39
0.58030522 0.074363105 2.3870244 1.1522652e-38
0.61813873 0.076172814 2.31146 1.152265e-38
0.61014098 -0.036745179 2.3759284 8.3883604e-39
0.6296826 -0.019743869 2.3299749 9.5865392e-39
0.73902667 0.1222358 2.0526512 1.124427e-38
0.65178895 0.26118731 2.1652141 1.1523016e-38
0.68461841 0.26969379 2.0966549 1.1430463e-38
0.66026038 0.16471934 2.1900401 1.1429739e-38
0.70539433 0.16699626 2.0998435 1.1336823e-38
0.75369793 0.26170591 1.9635481 1.1153515e-38
0.78802371 0.2710813 1.8916564 1.0968765e-38
0.7629329 0.16443674 1.9872105 1.1060234e-38
0.80722737 0.17092621 1.8968568 1.0691455e-38
0.72410399 0.2730636 2.0171521 1.1337907e-38
0.73417282 0.18552271 2.0349734 1.1244986e-38
0.74753517 0.043899775 2.0695903 1.1243904e-38
0.75734359 -0.039851829 2.0862935 1.0783283e-38
0.67915308 0.066683263 2.1949422 1.1429736e-38
0.72023255 0.078262299 2.1087513 1.133682e-38
0.69870645 -0.025553424 2.1960394 1.0784003e-38
0.73139018 -0.012016406 2.1256003 1.115171e-38
0.77910447 0.06896095 1.9963875 1.0967677e-38
0.82176876 0.073039375 1.910296 1.069073e-38
0.79964018 -0.030699406 1.9987422 1.087512e-38
0.83176041 -0.01881016 1.9301268 1.0782204e-38
0.62349141 0.27055451 2.2171137 1.1707047e-38
0.63342655 0.19593446 2.2296312 1.1430457e-38
0.66821879 -0.10622678 2.2910693 9.3110426e-39
0.6457324 -0.39929035 2.4618089 1.2170906e-38
0.75046515 -0.46035683 2.2811003 8.6642214e-39
0.68657684 -0.42507112 2.3921819 1.0325911e-38
0.72226638 -0.44247088 2.3291326 9.2181154e-39
0.62865782 -0.096866541 2.3652351 1.4381801e-38
0.56236637 -0.34873572 2.6048121 1.3826093e-38
0.60459667 -0.3706629 2.5307851 1.3092864e-38
0.59896368 -0.38581216 2.5484483 9.4017878e-39
0.62251186 -0.38851401 2.5030649 1.1710648e-38
0.74545962 -0.15134679 2.1578314 1.0416667e-38
0.77297401 -0.13649896 2.0970459 8.5713041e-39
0.78733253 -0.18790571 2.0908163 1.0970201e-38
0.71525997 -0.11767954 2.2030189 8.1114134e-39
0.81980497 -0.12551124 1.9997404 9.216312e-39
0.82554752 -0.19396392 2.0178876 9.3088789e-39
0.78605449 -0.47597843 2.217483 8.6645759e-39
0.85007685 0.264431 1.7718625 1.0415589e-38
0.85658902 0.16018596 1.8039129 1.0322669e-38
0.86933774 0.073481403 1.8160765 1.0229746e-38
0.88571537 -0.029647021 1.8281444 1.0413057e-38
0.90052301 -0.12218759 1.8387532 1.0045355e-38
0.82380682 0.27127299 1.8208414 1.0600342e-38
0.83545548 0.18718673 1.8340516 1.0507422e-38
0.85983849 -0.52241665 2.0916464 7.9266522e-39
0.94458437 -0.57964462 1.9487916 7.465667e-39
0.95306468 -0.57725555 1.9309992 7.5578696e-39
0.94274127 -0.590101 1.9569408 7.3731056e-39
0.95656949 -0.58770025 1.9285723 7.1890745e-39
0.91108149 -0.56316364 2.0079141 7.5575067e-39
0.93177938 -0.58771431 1.9775807 7.5575039e-39
0.8070429 -0.48911029 2.1816542 8.2950759e-39
0.83147824 -0.49695548 2.136734 8.1117651e-39
0.10240681 1.1232183 2.8796945 2.341805e-38
0.12369114 1.1202537 2.8388996 1.4014464e-38
-0.057669889 1.1620284 3.1793919 5.0703897e-39
-0.074059784 1.2224327 3.1857595 1.0322636e-38
-0.071012869 1.1660186 3.204047 6.3611257e-39
-0.043956876 0.43323693 3.4663467 8.0181093e-39
-0.035518922 0.36567506 3.4787827 8.3861716e-39
0.24905628 0.95950633 2.660363 7.930629e-39
0.26034403 0.86554378 2.6785421 8.9451439e-39
0.24206114 0.74117869 2.7682748 9.6830733e-39
0.26989624 0.76799881 2.7016954 9.7752661e-39
0.14549324 0.94912297 2.8695495 5.1654748e-39
0.11137866 1.0670618 2.8861594 1.7518257e-38
0.099972405 0.95403701 2.9574125 2.3509886e-38
0.12126648 0.97100317 2.9080095 9.8663827e-39
0.15919304 1.0605066 2.7944705 6.5473289e-39
0.20804816 1.0464813 2.7039425 7.1923381e-39
0.17782427 0.9681139 2.7974572 7.6536806e-39
0.21824805 0.97293264 2.7154756 7.838432e-39
0.13181746 1.0892116 2.8362134 1.8449958e-39
0.15583247 0.86053109 2.8872895 7.1008628e-39
0.14126499 0.74415994 2.966233 2.3052467e-39
0.16945624 0.77516717 2.8971455 8.2990528e-39
0.11426476 0.86430877 2.967828 2.1850364e-38
0.12976003 0.88763547 2.9271462 6.4547745e-39
0.11911368 0.74483079 3.0097299 1.392154e-38
0.2008414 0.86986458 2.7942982 8.5759999e-39
0.22933136 0.87705517 2.7348843 8.7607512e-39
0.21578601 0.77492702 2.8056693 9.3135663e-39
0.12338241 0.44894567 3.1287997 1.8623876e-38
0.24094006 0.53099227 2.8610678 1.0696141e-38
0.34015244 0.5406462 2.6607952 1.1341509e-38
0.25323841 0.66618055 2.7785001 1.0235884e-38
0.29225382 0.67020446 2.6996448 1.0420274e-38
0.26444495 0.57110304 2.7973204 1.0696499e-38
0.31188908 0.57029486 2.7038863 1.1064925e-38
0.24854314 0.46531448 2.8743417 1.0787615e-38
0.26017672 0.37476987 2.8903644 1.0879447e-38
0.35026285 0.46433705 2.6736944 1.1525181e-38
0.34104845 0.33336249 2.7483497 1.1524099e-38
0.35979763 0.37074059 2.6951809 1.1616654e-38
0.28675076 0.47118285 2.796288 1.1064562e-38
0.32319504 0.47427487 2.7229164 1.1249313e-38
0.30620652 0.37542665 2.7990947 1.1248231e-38
0.33299631 0.38636312 2.7414265 1.1524459e-38
0.14851424 0.65184522 2.9916852 3.9647834e-39
0.19119489 0.67140818 2.8988883 9.4054018e-39
0.1584862 0.58633304 3.000205 7.8373502e-39
0.22377579 0.57102978 2.8777428 1.023552e-38
0.12450829 0.67107236 3.0308518 1.7609365e-38
0.13710225 0.5870707 3.0421567 1.2903843e-39
0.22560222 0.68191534 2.8263474 9.8674603e-39
0.23464026 0.61140585 2.8388674 1.0511388e-38
0.18104637 0.44028878 3.0185463 9.773457e-39
0.22808896 0.46442637 2.9151561 1.0511386e-38
0.23558289 0.38073081 2.93641 1.0603219e-38
-0.049121182 0.92880577 3.2629974 8.2954333e-39
-0.052502628 1.0632125 3.211761 6.5444352e-39
-0.048785936 0.98289728 3.2390251 6.8206619e-39
-0.063212559 1.075152 3.2277861 1.0166617e-39
-0.042650666 0.86035252 3.2797062 8.0188422e-39
-0.040850557 0.77005386 3.3150609 7.8344425e-39
-0.065073252 0.8255983 3.3390057 1.793662e-42
-0.061885692 0.81180817 3.3386474 1.843907e-39
-0.037201852 0.9149195 3.2454209 8.1106819e-39
-0.040834282 0.6569128 3.363785 8.479449e-39
-0.035453517 0.69383627 3.3372374 8.4794476e-39
-0.034926601 0.56308067 3.3925431 8.3879722e-39
-0.037397403 0.4751913 3.4353015 8.662041e-39
0.35030022 0.94541895 2.4663055 7.2830722e-39
0.25176796 1.03028 2.6245036 7.1919794e-39
0.27611232 0.96980971 2.6024411 7.8380719e-39
0.3190861 0.96370429 2.5201268 7.5600332e-39
0.38525513 0.93734258 2.4006906 7.3759979e-39
0.42346919 0.92058229 2.3323758 8.2994102e-39
0.36100298 0.86320615 2.4805777 8.3883464e-39
0.34307733 0.74803883 2.5656407 1.0419918e-38
0.37071991 0.77365822 2.4999592 1.0051494e-38
0.29775763 0.86803377 2.6035137 8.8525853e-39
0.32998529 0.88383073 2.5330024 8.2039537e-39
0.31545836 0.77168643 2.6100442 9.9596588e-39
0.40127271 0.86884075 2.3985488 8.5749124e-39
0.43028995 0.87875324 2.3369188 8.57636e-39
0.4144901 0.77344549 2.4135311 9.9589385e-39
0.35184813 0.65781093 2.5871859 1.1064927e-38
0.39291111 0.6693899 2.5010273 1.1064929e-38
0.36311442 0.56706554 2.6040213 1.1341514e-38
0.4112983 0.57171059 2.5067749 1.1433708e-38
0.32817301 0.68289065 2.6231766 1.0788699e-38
0.33652267 0.60934055 2.6383672 1.1248961e-38
0.42833036 0.67818654 2.4272239 1.0696145e-38
0.43410102 0.60715592 2.4464264 1.0511747e-38
0.38551316 0.46865067 2.6021566 1.1617377e-38
0.42419419 0.47511786 2.5229087 1.1525181e-38
0.40527454 0.37288475 2.604363 1.1800327e-38
0.43407542 0.39267156 2.5389059 1.1340067e-38
0.055219091 -0.056891091 3.4815202 7.4656656e-39
-0.031857092 0.2753413 3.5104721 8.2024992e-39
-0.027514838 0.13342935 3.5630436 7.9273458e-39
-0.024549091 0.17879769 3.5376306 8.2024992e-39
-0.028761165 0.078151785 3.5893285 8.0170177e-39
-0.010412816 -0.0078063542 3.5901017 7.0050406e-39
0.019828165 -0.036647253 3.5427532 7.1901507e-39
0.1607056 0.27968663 3.1279628 9.4986512e-39
0.17880692 0.13723886 3.1535678 8.5705586e-39
0.19594041 0.13161841 3.122122 8.7560317e-39
0.10691648 0.25552624 3.2446988 9.4979421e-39
0.088675812 -0.070153549 3.4211013 7.7422483e-39
0.183543 0.066809908 3.1745558 8.6634745e-39
0.19422822 0.08890786 3.1439121 9.7676725e-39
0.18683571 -0.034967285 3.2119067 8.5712789e-39
0.24666843 0.26215833 2.9655943 1.0511381e-38
0.27782813 0.25883001 2.9054351 1.0879806e-38
0.29924026 0.15583059 2.9074962 6.9139492e-39
0.351098 0.26797837 2.7566609 1.1524457e-38
0.38037655 0.27283025 2.6966953 1.1616292e-38
0.36421341 0.2005188 2.7598069 1.1616291e-38
0.3992762 0.19422768 2.6932096 1.1616651e-38
0.31992811 0.27645704 2.81462 1.1339705e-38
0.3191871 0.21339449 2.8432612 1.124787e-38
0.33883357 0.068547279 2.8668463 1.1979304e-38
0.28316173 0.099615701 2.9635034 9.4007102e-39
0.29667521 0.09468621 2.938916 1.0875816e-38
0.39233923 0.04432907 2.771518 9.5854532e-39
0.24460022 -0.15915126 3.1512394 1.1523347e-38
0.27502188 -0.17704955 3.0988181 1.207581e-38
0.29625177 -0.18944506 3.0621948 1.2352756e-38
0.18042263 -0.11980931 3.2611446 7.83406e-39
0.20686218 -0.13028601 3.213397 9.2170126e-39
0.35126063 -0.2190721 2.9662266 1.2445679e-38
0.39230925 -0.24806264 2.897579 1.244567e-38
0.31695336 -0.20189142 3.0266376 1.1708115e-38
0.43084639 -0.26852736 2.8302219 1.2722267e-38
0.43624741 -0.2845321 2.826443 1.281518e-38
0.42087999 0.27875221 2.6140807 1.1616292e-38
0.43220598 0.16627446 2.6401634 1.1615933e-38
0.023790482 1.1615047 3.3751807 1.1071788e-38
0.07630413 1.087033 3.4464486 2.0562155e-38
-0.24778405 1.1720673 3.1404102 1.1052587e-39
-0.1531409 0.91318244 3.3133838 1.1978117e-39
-0.20962833 1.04465 3.2183774 1.4740427e-39
-0.25469676 1.0213108 3.188379 1.5658782e-39
-0.24167995 0.92085242 3.2353337 1.6577137e-39
0.028226055 0.77572358 3.5167513 9.0431185e-39
-0.15578556 0.84657621 3.3349254 1.2892885e-39
-0.22850414 0.74261713 3.310205 1.7495464e-39
-0.25974011 0.86128122 3.2412503 1.7495478e-39
-0.26087493 0.74869609 3.2804997 1.841742e-39
-0.24747157 0.65280932 3.3261502 1.9339362e-39
-0.21200815 0.51223278 3.4065275 2.6679055e-39
-0.24664426 0.55851346 3.3605356 2.0261318e-39
-0.29839346 1.1645411 3.1000509 2.3034488e-39
-0.30404988 1.0784231 3.1260002 1.2892885e-39
-0.28217933 0.92250943 3.2002938 1.6573535e-39
-0.29453644 0.95418543 3.1784687 1.6573535e-39
-0.39003602 0.94490826 3.1005521 1.1056161e-39
-0.2941536 0.85362512 3.2147138 1.6577123e-39
-0.32425976 0.86383122 3.1854603 1.6577109e-39
-0.30565706 0.7737239 3.2334688 1.7495478e-39
-0.41064972 0.84671926 3.1180902 1.3811254e-39
-0.42453066 0.75619763 3.1386168 1.3814869e-39
-0.27923006 0.63354659 3.3060174 1.8417434e-39
-0.30053499 0.54869443 3.3182044 1.8421007e-39
-0.3258566 0.67233682 3.2525024 1.6577109e-39
-0.32952479 0.58381754 3.2810001 1.5658754e-39
-0.37902176 0.63079071 3.2221205 1.6569976e-39
-0.43416294 0.6580537 3.1654797 1.3814883e-39
-0.42573929 0.53553277 3.2164085 1.5655194e-39
-0.45649025 0.57315135 3.176815 1.3818484e-39
-0.47869095 0.73159677 3.1013362 1.1981746e-39
-0.4956812 0.65534568 3.1141205 1.2896514e-39
-0.514516 0.56581414 3.1300797 1.3814897e-39
-0.30286503 1.1788285 3.0911443 6.360774e-39
-0.40353641 1.1200287 3.0265172 3.6805945e-40
-0.46526498 1.134588 2.968811 9.1835496e-41
-0.35270566 1.1018417 3.0762494 7.3755523e-40
-0.4595665 1.0739725 2.9953094 5.5209058e-40
-0.46546111 1.0809554 2.9878013 2.7550649e-40
-0.4182235 0.96583033 3.0691028 1.0127058e-39
-0.51335466 1.1353663 2.927629 0
-0.55317008 1.1416497 2.8915179 0
-0.5858072 1.1318935 2.8672419 0
-0.47914478 1.0246177 2.9962854 3.6841958e-40
-0.52550787 1.0647248 2.942524 9.1835496e-41
-0.50666016 0.933321 3.0054915 8.2831593e-40
-0.5382151 0.96844929 2.9661038 4.6025508e-40
-0.58845508 1.0454729 2.8958585 1.8367099e-40
-0.59917939 0.96348315 2.9160223 3.6806085e-40
-0.57280612 1.0926505 2.8923178 9.1835496e-41
-0.63559085 1.070935 2.8466704 3.5873241e-43
-0.64628518 0.97428131 2.872098 1.8438846e-40
-0.46088067 0.86977881 3.0671279 1.0134247e-39
-0.46863461 0.78918439 3.0893202 1.1974544e-39
-0.50968909 0.85949802 3.0292845 9.2123043e-40
-0.56122965 0.87821871 2.9787576 7.3684057e-40
-0.52778423 0.76780087 3.0466461 1.1970984e-39
-0.61982763 0.85224062 2.938194 7.3684057e-40
-0.58688927 0.74015152 3.0062482 1.1970999e-39
-0.63913995 0.76712167 2.9521711 1.0134261e-39
-0.66256166 0.8907482 2.8880904 5.5281084e-40
-0.54259706 0.66500986 3.0707629 1.3811324e-39
-0.55409014 0.59923416 3.0844815 1.1066993e-39
-0.60608202 0.65444064 3.0205386 1.2900157e-39
-0.65202457 0.67230606 2.9750788 1.1981803e-39
-0.62471211 0.56047863 3.038254 1.2900186e-39
-0.67092723 0.58963108 2.9885314 1.3822184e-39
-0.15469065 0.13718313 3.5892453 1.3811226e-39
-0.1892854 0.27016181 3.5123208 2.210156e-39
-0.23892467 0.15681067 3.5105865 2.0257703e-39
-0.14613816 0.46229303 3.4803934 1.5651523e-39
-0.17232931 0.40778145 3.4775867 2.210872e-39
-0.21522678 0.4391149 3.4299068 2.5771448e-39
-0.26330122 0.47739044 3.375344 2.210879e-39
-0.22135337 0.34965378 3.4566503 2.3027145e-39
-0.24484569 0.2689544 3.4654932 2.2108762e-39
-0.26676008 0.19899102 3.4718435 2.2097986e-39
-0.16564971 0.0075374092 3.6262319 8.279544e-40
-0.24892166 0.060029469 3.5366523 1.6573507e-39
-0.17450961 -0.0079621812 3.6242323 8.279544e-40
-0.26412839 -0.0035884776 3.5464413 1.3807638e-39
0.061024155 1.3286836 3.3471365 1.7889584e-38
-0.31863448 0.45919764 3.3347762 2.1186848e-39
-0.28876892 0.33423582 3.4048145 2.3945542e-39
-0.32846028 0.36686912 3.3593979 2.3949088e-39
-0.39263585 0.35829297 3.3078737 2.1186834e-39
-0.36455739 0.5085817 3.2780752 1.7499051e-39
-0.41935208 0.46643561 3.2465224 1.7499065e-39
-0.4372879 0.36858112 3.2662187 2.026492e-39
-0.31012174 0.24777272 3.4175363 2.3027131e-39
-0.35267761 0.26090661 3.3766477 2.3027187e-39
-0.32534125 0.16081589 3.4356513 1.9342921e-39
-0.41953015 0.25961235 3.320246 2.1186862e-39
-0.37580657 0.11266451 3.4099247 1.7495464e-39
-0.42968512 0.16806415 3.3443084 1.9342949e-39
-0.45635033 0.28302991 3.2805629 2.2105231e-39
-0.48226047 0.42975616 3.2061145 1.4743986e-39
-0.51702744 0.46992669 3.1621935 1.473328e-39
-0.49973917 0.36025542 3.2160728 1.750268e-39
-0.54696399 0.36047548 3.1758254 1.7499093e-39
-0.59959042 0.43236092 3.1053851 1.3818526e-39
-0.61422706 0.35223463 3.1215558 1.6577207e-39
-0.48840162 0.14247344 3.3035059 1.8421007e-39
-0.52166438 0.26462474 3.2315819 1.9343006e-39
-0.57075173 0.31124312 3.173177 1.8413945e-39
-0.52941722 0.18372469 3.2538838 1.8421049e-39
-0.5800705 0.22619374 3.1956296 1.6584381e-39
-0.63164294 0.26572478 3.1376424 1.566604e-39
-0.59163898 0.15931705 3.2096775 1.6580766e-39
-0.63945717 0.16608943 3.1665845 1.5662425e-39
-0.29113477 0.047529839 3.5052114 1.6573507e-39
-0.3111566 -0.012300554 3.509552 1.3807652e-39
-0.33565924 0.065139599 3.4610496 1.6573507e-39
-0.3533031 -0.02552942 3.4784279 1.2885682e-39
-0.4010745 0.054898188 3.409066 1.5651551e-39
-0.43993366 0.074495576 3.3690135 1.5651551e-39
-0.42230016 -0.032182012 3.4221163 1.1045385e-39
-0.46237901 -0.0071092509 3.3790696 1.3807638e-39
-0.49240175 0.055798631 3.3310626 1.5651565e-39
-0.49986702 -0.026481239 3.3541024 1.1967341e-39
-0.53592545 0.079239927 3.2856693 1.6577109e-39
-0.63453698 0.056970596 3.2097461 1.289657e-39
-0.66056955 0.075149775 3.1811094 1.3818526e-39
-0.66872078 0.010259316 3.1973548 0
-0.53320307 -0.10272944 3.3529823 1.2900115e-39
-0.57967353 -0.097159587 3.3114657 2.9617858e-39
-0.63480973 0.46793973 3.0627191 1.3822128e-39
-0.66232532 0.36572671 3.0758247 1.6584409e-39
-0.66859019 0.30861929 3.090894 1.5673201e-39
-0.68396449 1.0652479 2.8075562 3.5873241e-43
-0.70077854 0.96039641 2.8307064 1.8474719e-40
-0.76357555 0.94399828 2.783149 9.3987891e-41
-0.81076127 0.95582861 2.7387881 4.6276761e-40
-0.9259302 0.92939186 2.65027 1.6609633e-39
-0.98183388 0.92841083 2.6030695 6.8257136e-39
-0.99459797 0.96842211 2.5779204 1.94558e-38
-0.68582428 0.81339723 2.8959327 8.3010959e-40
-0.69428951 0.74283344 2.9139369 1.0137918e-39
-0.72786355 0.86599958 2.8413858 5.5281224e-40
-0.76798844 0.90823591 2.7921696 3.6878252e-40
-0.73988622 0.77371991 2.864121 9.2159476e-40
-0.78510392 0.8372584 2.802964 8.2940054e-40
-0.82849741 0.86707693 2.7554033 7.3720491e-40
-0.80063373 0.75208437 2.8201778 1.0145107e-39
-0.84835583 0.7716192 2.772609 1.1985432e-39
-0.71296543 0.65883642 2.9280548 1.2900186e-39
-0.68198138 0.53057581 3.0002227 1.3822184e-39
-0.73114932 0.56273574 2.9469142 1.5669642e-39
-0.78599328 0.54668242 2.9059985 1.7513582e-39
-0.75686145 0.68307805 2.8820584 1.1985418e-39
-0.81820899 0.66422617 2.8366108 1.4751301e-39
-0.86357182 0.6975776 2.786113 1.6591626e-39
-0.83068526 0.57742697 2.8570025 1.8435553e-39
-0.89024603 0.85293943 2.7079306 9.2231643e-40
-0.90724158 0.76230973 2.7258465 1.4754902e-39
-0.87898493 0.62462926 2.7990594 1.8446343e-39
-0.92527401 0.66278446 2.7460577 2.0293871e-39
-0.89258051 0.55523133 2.812283 2.2130609e-39
-0.94347095 0.57176667 2.7630908 2.4907295e-39
-0.97660261 0.65273362 2.7059886 5.903044e-39
-0.98686641 0.57043546 2.7266541 1.659774e-38
-0.93667001 0.86693203 2.663445 1.1992649e-39
-0.9570334 0.78039265 2.6770351 1.3851009e-39
-0.98453462 0.86375076 2.6238678 1.1435864e-38
-0.98907274 0.76051939 2.6568816 1.6688859e-38
-0.98548985 0.697492 2.6824415 1.4293939e-38
-0.68480432 0.2383121 3.102216 1.5669642e-39
-0.70690227 0.16303179 3.1103091 1.4744112e-39
-0.70922762 0.075374812 3.139641 1.2896668e-39
-0.81824803 -0.13118272 3.1206903 4.6062502e-40
-0.77429914 -0.20152463 3.1831985 4.7012555e-39
-0.69510919 0.45735496 3.0152104 1.5662453e-39
-0.7445904 0.46990868 2.9686387 1.7506394e-39
-0.7177949 0.35977378 3.0307691 1.6591612e-39
-0.76209503 0.3848888 2.9841173 1.7509995e-39
-0.8022747 0.45817828 2.9237628 1.8435553e-39
-0.77837241 0.31295809 2.995965 1.751717e-39
-0.82266283 0.36319399 2.9403486 1.9357523e-39
-0.85094422 0.47265965 2.8771925 2.3045362e-39
-0.87115455 0.40012127 2.8859119 2.304539e-39
-0.72948134 0.26533604 3.0545609 1.6591626e-39
-0.74461818 0.17445435 3.0741484 1.5669684e-39
-0.79364663 0.24753579 3.0063415 1.7513596e-39
-0.8298775 0.27154973 2.9669461 1.8435581e-39
-0.79986489 0.1677793 3.0295403 1.3829373e-39
-0.85168749 0.18327446 2.9799261 1.8435581e-39
-0.88181859 0.33306575 2.9007931 2.120868e-39
-0.91526008 0.46289673 2.8259733 2.4900107e-39
-0.9569701 0.49020141 2.7807426 2.6754865e-39
-0.93169338 0.36783603 2.8459501 2.4903722e-39
-0.9817183 0.46303919 2.7693942 1.0697944e-38
-0.98432738 0.35248458 2.8066645 1.060647e-38
-0.98199087 0.40244409 2.7908065 6.367269e-39
-0.89997786 0.25618583 2.9128077 2.0290325e-39
-0.92481458 0.16443087 2.9244556 2.1212254e-39
-0.97362852 0.1268751 2.8963501 1.5702194e-39
-0.94655681 0.26949421 2.8684347 2.3063397e-39
-0.96251792 0.1886511 2.8837347 2.3059782e-39
-0.98653871 0.26139936 2.8373177 1.1989767e-38
-1.0115347 0.14695843 2.8569341 9.4082927e-39
-0.76542205 0.11024576 3.0793877 4.6205014e-40
-0.77552152 0.10673819 3.0720501 6.5473443e-39
-0.8608045 -0.060104482 3.0591044 5.5318359e-40
-0.85815024 -0.10999823 3.0791836 9.2123883e-40
-0.89485329 0.030002307 2.9979572 1.8435623e-39
-0.94181579 0.060230803 2.9472139 1.8442811e-39
-0.90357435 -0.047901142 3.0183654 1.1063518e-39
-0.95241791 -0.031952005 2.971123 1.5669726e-39
-0.99104357 0.056444913 2.9066939 1.8453615e-39
-1.0118636 -0.042071383 2.9241738 1.4758574e-39
-1.0371777 0.072031491 2.8618853 1.9382774e-39
-1.0556264 -0.0095620006 2.8753378 1.661329e-39
-0.91932166 -0.13741735 3.0369458 5.5317658e-40
-0.96471691 -0.10267734 2.985924 1.106349e-39
-0.95094126 -0.18994915 3.0288143 2.7622816e-40
-0.97673273 -0.16523385 2.9980483 6.4537361e-40
-1.0251853 -0.13585742 2.9463422 9.219605e-40
-0.98149681 -0.19225964 3.0036495 3.6842799e-40
-1.0384762 -0.20266826 2.9589016 1.8439546e-40
-1.0710741 -0.096982919 2.893424 1.2911074e-39
-1.0828239 0.12533891 2.8040187 1.4666334e-38
-1.1140187 0.12060578 2.7791758 1.5864518e-38
-1.0999117 0.056013212 2.8142462 2.1230316e-39
-1.1468468 0.070820838 2.7690351 3.6910832e-39
-1.1186944 -0.043625563 2.8338599 1.5691362e-39
-1.1631148 -0.012767681 2.7850544 1.8464447e-39
-1.202648 0.056604732 2.7266488 4.2442556e-39
-1.1775653 -0.074458055 2.7947984 1.3858211e-39
-1.2279204 -0.031450219 2.7366059 1.7542491e-39
-1.0841196 -0.1556605 2.9032872 7.3828951e-40
-1.0977856 -0.20935349 2.9108417 1.847556e-40
-1.1283575 -0.12845287 2.8559406 8.3192848e-40
-1.1490958 -0.21304268 2.8685155 2.7659109e-40
-1.1911985 -0.14394452 2.8080227 8.3228861e-40
-1.2424922 -0.1280162 2.7587032 9.2484578e-40
-1.2102644 -0.22714424 2.8215237 1.8511433e-40
-1.2539483 -0.21812181 2.7811434 1.8619753e-40
-1.2798307 -0.069670409 2.7061028 1.3861841e-39
-1.2986381 -0.15078968 2.7190807 7.4045452e-40
-1.3135321 -0.24260138 2.7392068 9.364177e-41
-1.2602154 0.060660344 2.6762342 6.2743629e-39
-1.2725192 -0.0021967383 2.688221 2.123033e-39
-1.3135527 0.052147772 2.6339066 6.9200897e-39
-1.3638475 0.056038048 2.5897374 1.0148386e-38
-1.3257278 -0.035577387 2.6548853 1.6631339e-39
-1.3831563 0.040881071 2.5787277 7.2899526e-39
-1.3875982 -0.047956839 2.6066816 1.387626e-39
-1.4025432 -0.027478486 2.5866549 1.5716585e-39
-1.3398566 -0.12635784 2.6752942 1.0174043e-39
-1.3633714 -0.21065585 2.6854031 2.798351e-40
-1.398263 -0.14318937 2.6316259 9.2484718e-40
-1.408718 -0.25023881 2.6609712 1.8655907e-40
0.72371674 0.72759348 1.8855143 8.2086368e-39
0.6596145 0.76226622 1.9848796 9.4972401e-39
0.69269884 0.73904365 1.9354843 9.8663841e-39
0.58503371 0.82413709 2.0928528 6.0831221e-39
0.73600471 0.65401757 1.8902013 8.0206751e-39
0.75046545 0.56947255 1.8949932 1.0046444e-38
0.69252622 0.64722323 1.968347 1.0419557e-38
0.70118719 0.66462839 1.9470878 1.0327004e-38
0.69940543 0.56520677 1.9854486 1.1156045e-38
0.76259857 0.42065111 1.9266334 1.0970151e-38
0.81343943 0.61475807 1.7692379 8.3008507e-39
0.82722068 0.64789641 1.7334803 8.1139497e-39
0.82069939 0.54172117 1.782492 7.5643338e-39
0.84443843 0.55745149 1.7355624 8.2050411e-39
0.83533847 0.45692867 1.7870613 9.8591647e-39
0.85980463 0.45123786 1.7464612 1.0045717e-38
0.84903187 0.35339445 1.7999239 1.041594e-38
0.86817843 0.38066527 1.7569013 1.0417031e-38
0.75942492 0.71638721 1.8272872 9.0355319e-39
0.78117919 0.65751702 1.8102695 8.8515133e-39
0.79244888 0.56093305 1.8248894 8.7614617e-39
0.8073898 0.49287307 1.822999 9.6791202e-39
0.41633287 0.037223682 2.6657748 1.0323383e-38
0.41664869 -0.28346053 2.7789464 1.1340774e-38
0.42509338 -0.30251846 2.7709949 9.956042e-39
0.46655211 -0.32847613 2.7079818 9.6790978e-39
0.8729111 -0.24818312 1.9716613 1.3274712e-38
0.63316607 -0.026952978 2.3108261 1.0968753e-38
0.42095768 0.21882342 2.5933192 1.1708126e-38
0.42309451 0.13883525 2.6179631 1.1154952e-38
0.5062834 0.14407414 2.4711962 1.1891078e-38
0.53805739 0.14274679 2.4163187 1.1707046e-38
0.57098567 0.1955075 2.34025 1.1706688e-38
0.52088368 0.038186189 2.4833136 1.0600688e-38
0.52875715 -0.022291334 2.4910455 8.2972424e-39
0.44389111 0.049219113 2.6135166 9.3110313e-39
0.4947018 0.049511321 2.5249038 1.060069e-38
0.47536832 -0.011093164 2.5800738 9.4035885e-39
0.50092936 -0.020898381 2.5390253 1.179961e-38
0.55657089 0.028631294 2.4245379 1.0692883e-38
0.57802343 -0.037808094 2.4107301 1.0232272e-38
0.60637164 -0.0087835975 2.3510566 9.9560336e-39
0.6918149 -0.063059449 2.2214684 1.0876192e-38
0.61798501 -0.40029389 2.4696655 1.0140436e-38
0.73059034 -0.46412495 2.2961514 8.2947214e-39
0.65228266 -0.42308262 2.4180031 8.6642242e-39
0.70408487 -0.44860408 2.336818 8.5709468e-39
0.5338487 -0.35766762 2.6011083 9.954963e-39
0.57357556 -0.3721056 2.5370274 1.2812288e-38
0.60778594 -0.40071052 2.4875793 8.8489742e-39
0.50498694 -0.34829184 2.6480584 9.3099565e-39
0.72377765 -0.14117093 2.1934919 1.0693265e-38
0.7079708 -0.1395352 2.2204456 1.576294e-38
0.77788746 -0.47772628 2.2185864 8.2028803e-39
0.85343999 0.25288093 1.8278898 1.0691818e-38
0.81423634 -0.49402112 2.1610482 7.8348167e-39
0.82595491 -0.50615799 2.1449394 7.741542e-39
0.92717767 -0.56475073 1.9893951 7.7429812e-39
0.95237917 -0.57622629 1.9495656 7.5585871e-39
0.90138555 -0.55321836 2.0302334 7.7429812e-39
0.80004197 -0.51439929 2.1930003 8.0181261e-39
0.11059432 1.1112725 2.8174663 2.3509886e-38
-0.084163226 1.1465378 3.1442134 1.8582479e-40
-0.10914604 1.150314 3.1863925 1.198539e-39
-0.093619153 1.1691647 3.1526608 9.2123043e-40
-0.12397724 0.4347665 3.465977 1.1052573e-39
-0.11576344 0.35096139 3.4813883 9.2086749e-40
0.087123796 0.91373849 2.9284 2.3509886e-38
0.16901155 1.0302256 2.7444487 7.5611249e-39
0.13201135 0.96058691 2.8335958 3.4130376e-39
0.11375804 0.85024786 2.9045205 0
0.12990592 0.74118447 2.9150684 6.2707476e-39
0.097112119 0.84181422 2.9365072 2.0928408e-38
0.091766834 0.743819 2.9805696 2.1481582e-38
0.10479971 0.77816933 2.9456856 1.9268887e-38
0.1889801 0.82947904 2.7808545 8.8518665e-39
0.18605512 0.71675509 2.8259239 9.4972387e-39
0.12057327 0.35234612 3.0692163 4.5182991e-39
0.089937575 0.46847498 3.0813997 2.1297551e-38
0.09746322 0.35804716 3.1074505 1.5028246e-38
0.31953406 0.53151739 2.6591032 1.1249319e-38
0.23424083 0.5522306 2.8003323 1.0420273e-38
0.22548229 0.34213266 2.8900948 1.0786891e-38
0.31825027 0.47716004 2.6806157 1.1341151e-38
0.35406902 0.30843347 2.6780565 1.1525178e-38
0.26353946 0.3353318 2.8262136 1.1063839e-38
0.11763309 0.63764429 2.9731648 5.0707596e-39
0.1420849 0.65639675 2.9239211 7.7455175e-39
0.12528537 0.52752495 2.9988859 6.9153967e-39
0.16916138 0.55032837 2.9143703 9.6819873e-39
0.096017413 0.65193462 3.0057499 2.0928049e-38
0.096073642 0.5574246 3.0391672 2.0282684e-38
0.1887088 0.64827478 2.8455861 9.6823488e-39
0.20263138 0.56386834 2.8512664 1.0143326e-38
0.13503572 0.459993 3.0058496 7.9299018e-39
0.18227389 0.45906353 2.9238939 1.0050407e-38
0.15496907 0.36100879 3.0062292 9.6808999e-39
0.19562232 0.35630864 2.9370809 1.0234437e-38
0.10405122 0.47628492 3.054045 1.3370901e-38
-0.1135712 0.91819686 3.2764149 3.6949438e-40
-0.086527288 0.94742554 3.2189415 1.6602374e-39
-0.11012945 1.0523844 3.2228336 2.7658409e-40
-0.098891973 0.96495575 3.2342634 0
-0.083889358 0.732104 3.2907038 3.4101551e-39
-0.11533372 0.858711 3.3005798 3.6841958e-40
-0.12108779 0.71031725 3.3632269 5.5244931e-40
-0.11309331 0.76377118 3.3303454 5.5244931e-40
-0.078380153 0.86790943 3.2329476 3.3179539e-39
-0.085819393 0.54684025 3.3597648 6.4464214e-40
-0.087555006 0.56613588 3.3559456 2.580393e-39
-0.11127571 0.65252995 3.3666277 4.6097395e-40
-0.10131937 0.6736322 3.3418012 0
-0.11003518 0.55192912 3.4001422 6.4500227e-40
-0.11564768 0.49061823 3.4316607 1.012703e-39
-0.10520133 0.36440626 3.4582219 3.5873241e-43
0.40915167 0.9025141 2.3714323 8.4845273e-39
0.39000934 0.34265167 2.6033168 1.1800326e-38
-0.084293582 0.25879669 3.4592538 4.5154195e-39
-0.084018759 0.15057847 3.4971516 2.9488182e-39
-0.10640518 0.26060271 3.4971299 5.5280664e-40
-0.12329865 0.12682994 3.5739963 7.3647763e-40
-0.10386505 0.16250037 3.5274947 2.7658269e-40
-0.086352289 0.068305492 3.5303922 3.5009172e-39
-0.087261528 -0.031300411 3.5672987 3.2243149e-39
-0.051562775 -0.052206695 3.5125282 4.5143334e-39
-0.11093418 0.048653062 3.5801814 2.7586522e-40
-0.095103733 0.089495607 3.5381222 0
-0.10375291 -0.015839161 3.5905426 1.8367099e-40
0.13163589 0.24273491 3.0888166 7.007221e-39
0.13235486 0.15516169 3.1186199 6.3607656e-39
0.084703498 0.24206412 3.1708074 9.1277149e-39
0.099061199 0.25730059 3.140394 8.022089e-39
0.093722947 0.15416017 3.186269 7.3749189e-39
0.10724896 0.19646524 3.1477051 6.6369979e-39
0.075473025 0.032813374 3.2610912 7.0990271e-39
0.086114109 -0.052572675 3.272835 9.5854294e-39
0.11760318 0.051298358 3.1811483 5.8075918e-39
0.13557829 0.064439103 3.1451771 7.280917e-39
0.12595329 -0.043014053 3.2000484 7.0046917e-39
0.094553083 0.058232997 3.2188406 6.636628e-39
0.1032621 -0.036368705 3.2372184 8.3876149e-39
0.21219388 0.21004526 2.9600832 9.1269946e-39
0.23157388 0.25618014 2.9099638 1.0602499e-38
0.21510442 0.14883743 2.9767189 7.8362572e-39
0.24916941 0.15736604 2.9143562 8.8507707e-39
0.31566861 0.21492553 2.7781074 1.1431901e-38
0.35157251 0.25364947 2.701833 1.1616292e-38
0.3274872 0.15056124 2.7803452 1.060249e-38
0.37088984 0.14223823 2.7076926 1.0970916e-38
0.27643648 0.26114756 2.8300555 1.1155673e-38
0.29540315 0.15464319 2.8347859 9.7730899e-39
0.27049109 0.090420566 2.9009552 8.8493329e-39
0.33692616 0.073650002 2.7911775 8.0202939e-39
0.38934454 0.066630751 2.702358 8.9422488e-39
0.30179465 0.090337075 2.8464563 7.74407e-39
0.1764342 0.2529248 3.0071678 9.496503e-39
0.2049123 0.2782782 2.9485703 1.0509943e-38
0.18778613 0.16673069 3.0179598 7.7440616e-39
0.22129145 -0.1832405 3.0837042 8.7571359e-39
0.23600715 -0.20786572 3.066803 7.7437126e-39
0.034521148 -0.1220817 3.3873553 7.0983278e-39
0.089727826 -0.11411456 3.2883642 6.4518822e-39
0.13625714 -0.13692041 3.2154014 6.2674867e-39
0.18886155 -0.162398 3.1328032 8.1113979e-39
0.33910954 -0.25631356 2.904387 9.4950639e-39
0.27038991 -0.21630599 3.0099039 9.495424e-39
0.30570245 -0.2387279 2.9563434 9.495424e-39
0.38765135 -0.27945888 2.8280387 1.0048595e-38
0.0011486048 -0.072719805 3.427983 5.2525949e-39
0.40484864 0.25206834 2.6095905 1.1708486e-38
0.39770067 0.16199084 2.6539853 1.1339701e-38
0.093474738 1.1496122 3.3510463 2.2127324e-38
0.043025415 1.2646426 3.2679851 1.0888111e-38
0.041003812 1.1658669 3.3039713 1.1626046e-38
0.011248629 1.2524847 3.2478426 8.7611128e-39
-0.027660439 1.2353259 3.2240434 7.5567724e-39
-0.0046323612 1.1710137 3.2664471 9.4090059e-39
-0.033994 1.2142658 3.2271163 7.4674649e-39
0.062384155 1.0573905 3.3618855 1.3929135e-38
0.052473381 0.97775388 3.3844452 1.3098653e-38
0.0099117905 0.96620435 3.3556664 9.5952119e-39
0.039135132 1.0971946 3.3286293 1.1072868e-38
-0.0018054078 1.0762171 3.3046989 9.3168131e-39
-0.022038959 0.99347097 3.3203964 8.3915988e-39
-0.1451997 1.1478034 3.1657207 1.0137848e-39
-0.1829509 1.135087 3.141135 1.5655166e-39
-0.094820037 1.0516493 3.2415502 0
-0.14832523 1.0757563 3.1906829 1.1974558e-39
-0.14081222 0.94938916 3.2445927 1.0134233e-39
-0.1568431 0.97622597 3.2218933 1.3814869e-39
-0.20229378 1.0585506 3.1551652 1.5658754e-39
-0.22584438 0.96476454 3.1724756 1.6577109e-39
0.088368289 0.62900662 3.5450404 2.3509886e-38
0.057588041 0.56465739 3.545522 1.2079068e-38
0.034541249 0.8850255 3.4057319 1.0333863e-38
0.048753325 0.75484693 3.4663122 9.8721589e-39
0.034428056 0.8073951 3.4351649 9.319704e-39
-0.0064183418 0.86238068 3.3824208 8.6696402e-39
0.014379809 0.74435806 3.4435115 7.6565827e-39
0.0066118175 0.81752628 3.4096334 8.2097635e-39
0.059924267 0.70429069 3.4942436 1.2727338e-38
0.038710531 0.59333783 3.5199029 6.4569381e-39
0.012694013 0.6396727 3.482007 6.5487708e-39
0.0041013495 0.56656611 3.5031109 6.4551318e-39
-0.097542748 0.7820918 3.3419344 0
-0.14038651 0.86757493 3.2760363 1.1970942e-39
-0.16948085 0.9107967 3.2369251 1.6577109e-39
-0.14950474 0.76592851 3.307584 1.4729609e-39
-0.18672848 0.84580213 3.2481992 1.7491876e-39
-0.22673832 0.87249821 3.2068648 1.7495464e-39
-0.20392382 0.76711255 3.2647214 1.7495464e-39
-0.24772097 0.77113289 3.229059 1.8417434e-39
-0.12114592 0.66547257 3.3678865 7.3683917e-40
-0.14386526 0.57951415 3.3828678 1.3811254e-39
-0.19537362 0.55424595 3.3523333 2.0261318e-39
-0.16158059 0.68842399 3.3276455 1.6573507e-39
-0.22157784 0.67609334 3.2855752 1.8421007e-39
-0.27039602 0.70964885 3.2347674 1.841742e-39
-0.23209995 0.57466286 3.3159461 1.9342963e-39
-0.28286842 0.92578506 3.1428559 1.6573507e-39
-0.30038202 0.85859287 3.1547577 1.6573521e-39
-0.33125475 0.76062042 3.1679535 1.5655166e-39
-0.38190898 0.72520137 3.1419451 1.6573507e-39
-0.29048976 0.62614542 3.2508619 1.7495464e-39
-0.33556399 0.67155385 3.1984656 1.6569934e-39
-0.31180429 0.58287919 3.2507033 1.6580696e-39
-0.35240117 0.58259207 3.2191727 1.5655152e-39
-0.39391842 0.66593844 3.1551211 1.4729651e-39
-0.40893191 0.56990147 3.1799414 1.3822044e-39
-0.22007789 1.1519014 3.1058054 1.7495478e-39
-0.24074836 1.0808616 3.1167107 1.4736797e-39
-0.26588461 0.99872577 3.1283548 1.5655166e-39
-0.29667372 1.1450597 3.0487118 4.6097254e-40
-0.33252993 1.1431217 3.0215037 1.2896556e-39
-0.39631376 1.1332489 2.9755478 1.8367099e-40
-0.46432009 1.1283262 2.9244184 9.1835496e-41
-0.31314439 1.0724839 3.0634744 1.0130645e-39
-0.3550649 1.0883591 3.0247662 7.361203e-40
-0.33158949 0.97390306 3.0865865 1.3811268e-39
-0.41854158 1.0694714 2.9824774 3.6841818e-40
-0.38897285 0.9522782 3.0500877 1.1049e-39
-0.43278015 0.98068529 3.0051432 8.2867326e-40
-0.46834385 1.1136016 2.9268816 0
-0.51823008 1.1371255 2.8790569 0
-0.48691788 0.96451592 2.9690998 6.4428621e-40
-0.55206901 1.0730636 2.8770454 0
-0.56527281 0.98436069 2.9004865 2.7622395e-40
-0.59205276 1.0547742 2.8528388 0
-0.62319523 1.0850724 2.8170457 3.5873241e-43
-0.62616724 0.96849847 2.8590596 1.8403113e-40
-0.6540913 0.99128753 2.8286307 9.2911693e-41
-0.34486133 0.88268423 3.1109314 1.3814855e-39
-0.36651331 0.79813188 3.12621 1.2900073e-39
-0.40860334 0.86734486 3.0670867 1.1974544e-39
-0.45181558 0.88718152 3.0258651 8.3011099e-40
-0.42093363 0.77326894 3.0932517 1.3811282e-39
-0.44062868 0.68140209 3.1128371 1.2900115e-39
-0.47609058 0.5847134 3.1219676 1.6566417e-39
-0.51240087 0.87564403 2.9830351 1.0123485e-39
-0.48242673 0.73684543 3.0591774 1.3804121e-39
-0.57559323 0.77927619 2.970432 9.2194929e-40
-0.59282178 0.75872123 2.9648213 9.2194789e-40
-0.57213384 0.88904339 2.9313862 6.4500087e-40
-0.62805748 0.88692904 2.8886056 4.6061661e-40
-0.63676041 0.7692402 2.9265769 1.1970984e-39
-0.48103085 0.57791537 3.1207025 1.1988949e-39
-0.62190706 0.68042302 2.9719279 1.2900143e-39
-0.66545755 0.60474509 2.9667652 1.381854e-39
0.050822169 0.49388364 3.5671625 7.4700096e-39
0.038221139 0.37730476 3.6016736 4.2406388e-39
0.013058708 0.47144949 3.546262 4.9792787e-39
0.0024063992 0.36249402 3.5793934 4.8859956e-39
0.030660387 0.30343729 3.6238713 3.2261184e-39
0.028646626 0.19915673 3.6619573 2.7633396e-39
0.015951373 0.26755074 3.6260548 2.7644312e-39
0.012473342 0.16393597 3.6627462 1.8428266e-39
-0.13958578 0.13849279 3.5539131 1.1048972e-39
-0.0047410396 0.5012598 3.521054 7.5585871e-39
-0.094151944 0.46445394 3.4653671 3.6805945e-40
-0.15466602 0.47858635 3.4128306 1.8417392e-39
-0.13670895 0.35689908 3.4731004 1.5658726e-39
-0.1644187 0.41397908 3.4297981 2.210879e-39
-0.20685382 0.46718648 3.3764927 2.2101616e-39
-0.17723732 0.33977869 3.4480245 2.1190365e-39
-0.2299985 0.37927523 3.3918853 2.3027145e-39
-0.25574508 0.48980817 3.3297863 2.1186848e-39
-0.1553715 0.26864216 3.4921174 1.8417378e-39
-0.1657854 0.18107775 3.5173001 1.7495408e-39
-0.19467244 0.25925881 3.4650559 2.2105161e-39
-0.25381431 0.28232646 3.4101913 2.3949074e-39
-0.21046403 0.17331885 3.4854295 2.0261262e-39
-0.27588108 0.1906569 3.4278531 2.1190365e-39
0.0049428819 0.041655838 3.7033772 1.4729595e-39
-0.14698765 0.07139343 3.5736601 1.012703e-39
-0.15870494 0.0036453491 3.5902913 9.1978989e-40
-0.19164105 0.049360327 3.5472381 1.3811212e-39
-0.20757988 -0.0080160266 3.5566347 1.1041797e-39
-0.23550509 0.082126498 3.500592 1.749545e-39
-0.25777781 0.0055500437 3.5123537 1.381124e-39
-0.28565335 0.35085392 3.359318 2.3952675e-39
-0.33642432 0.46853083 3.2749994 1.9342935e-39
-0.37102026 0.50111878 3.2356443 1.6573535e-39
-0.35243249 0.37412536 3.2984231 2.2108776e-39
-0.39714 0.43272737 3.2412953 1.9342935e-39
-0.41957378 0.47439036 3.2079678 1.6577123e-39
-0.40361705 0.39022106 3.2524114 2.0264864e-39
-0.45525521 0.38433775 3.2144039 1.9342977e-39
-0.31285742 0.26662871 3.3701453 2.3945514e-39
-0.33454266 0.1648142 3.3919621 2.026129e-39
-0.39767855 0.15476038 3.3465798 1.9335761e-39
-0.35907042 0.26957232 3.333009 2.3023586e-39
-0.41962922 0.29763258 3.2751412 2.2105231e-39
-0.41781428 0.170581 3.3248703 2.1179659e-39
-0.47770843 0.42968276 3.179661 1.5662397e-39
-0.48343453 0.37211701 3.1970897 1.8421035e-39
-0.50630802 0.31696814 3.2002344 2.0264948e-39
-0.28948069 0.070348576 3.4630046 1.749545e-39
-0.35427484 0.08301457 3.40769 1.7491862e-39
-0.32434812 -0.023491323 3.4715149 1.1967341e-39
-0.36306882 -0.0090499893 3.4358463 1.2892857e-39
-0.41054755 0.073604047 3.3674121 1.5655138e-39
-0.38061658 -0.06258744 3.4425292 8.279544e-40
-0.43473613 -0.030237328 3.3880486 1.1963754e-39
-0.45331517 0.088863365 3.3282776 1.6573521e-39
-0.47926497 -0.0040811906 3.3433981 1.381124e-39
-0.64575595 0.058789723 3.1897333 1.6569976e-39
-0.63038081 0.45373735 3.051527 1.290736e-39
-0.62899715 0.39584064 3.0746222 1.3822142e-39
-0.63060504 0.29520914 3.1116371 1.8413917e-39
-0.68417668 1.0592403 2.7793427 3.5873241e-43
-0.71978539 0.96886486 2.7859583 1.8546465e-40
-0.78386933 0.92468625 2.7528141 2.7730015e-40
-0.8098771 0.95901549 2.7194901 3.7057198e-40
-0.8937 0.9384532 2.6619811 2.5825412e-39
-0.98221952 0.97343493 2.5796897 2.9614481e-39
-0.68595392 0.85436243 2.8558674 6.4464774e-40
-0.73549342 0.90393782 2.7984061 1.8474999e-40
-0.69637549 0.76066339 2.8833768 1.013789e-39
-0.80152047 0.87480003 2.758028 6.4536521e-40
-0.83329749 0.80038118 2.7615616 1.0141505e-39
-0.69722283 0.57662678 2.9527013 1.3825729e-39
-0.74727017 0.65479279 2.8839719 1.3822128e-39
-0.84177125 0.64856946 2.8126879 1.6598787e-39
-0.82320505 0.57992071 2.8532634 1.8435525e-39
-0.83967215 0.62186402 2.8244793 1.751717e-39
-0.89986891 0.65541399 2.764806 1.9364712e-39
-0.90007085 0.61607987 2.7796066 1.9375516e-39
-0.8349846 0.89668959 2.7236233 5.5317238e-40
-0.98181742 0.58160233 2.729008 1.3834058e-38
-0.71129763 0.51376098 2.9656382 1.5662467e-39
-0.68321931 0.36016273 3.0459311 1.5673257e-39
-0.70243412 0.40854988 3.0125554 1.6591612e-39
-0.82266986 0.48376781 2.890245 2.0286682e-39
-0.70343858 0.27924412 3.0609446 1.751717e-39
-0.72649384 0.1925669 3.0759373 1.8424791e-39
-0.78475177 0.27976322 2.9973748 1.8439126e-39
-0.88693976 0.45770776 2.8500659 2.2130651e-39
-0.96152407 0.44363809 2.7972877 2.8598764e-39
-0.88685524 0.39516467 2.873915 2.3963773e-39
-0.98631608 0.47787029 2.7649488 1.4293932e-38
-0.99224579 0.37495363 2.7994637 2.0931662e-38
-0.99394232 0.24518728 2.8474886 1.7892458e-38
-1.0080956 0.16153514 2.868269 1.5864149e-38
-1.0764332 0.13319112 2.825788 1.7708794e-38
-0.76161319 0.1144793 3.0782619 1.6595213e-39
-0.84285337 -0.13067356 3.1081722 6.4501208e-40
-0.92866451 -0.016858505 2.9980133 1.566611e-39
-0.9804346 0.0062033851 2.9488959 1.8442783e-39
-1.0283524 0.061359674 2.8905761 1.754605e-39
-1.0589093 -0.032117445 2.9023085 1.4772979e-39
-0.93375516 -0.10479122 3.0274844 1.0145121e-39
-1.060441 -0.10226119 2.9277883 1.1992719e-39
-1.096423 0.13453144 2.8096991 1.7063415e-38
-1.141983 0.11054606 2.7833126 1.2083412e-38
-1.0790666 -0.073531404 2.9023473 1.1095944e-39
-1.1911137 0.074657738 2.7586696 1.0146218e-38
-1.2316259 -0.050019149 2.7745078 1.5698593e-39
-1.2405246 -0.10936878 2.7901416 1.01704e-39
-1.2052342 -0.24169214 2.867965 1.8439546e-40
-1.2744787 -0.1833545 2.7918141 3.7202933e-40
-1.2846513 -0.14789006 2.7703996 7.4080904e-40
-1.2870744 -0.21044198 2.7922981 2.7839456e-40
-1.2401775 0.091632232 2.7139761 1.3375231e-38
-1.2638248 0.016012033 2.724303 2.3070642e-39
-1.3121709 0.09416829 2.656903 1.6973008e-38
-1.3603511 0.084121078 2.6231742 1.7525102e-38
-1.3290545 -0.014516368 2.685075 1.5727361e-39
-1.3920631 0.079427294 2.600244 1.7618374e-38
-1.4555171 -0.23975375 2.6721673 3.7202933e-40
-0.11182191 -0.18076035 1.2584978 5.9005133e-39
-0.078168444 -0.19488128 1.203673 5.1633056e-39
-0.1118488 -0.24201451 1.2619839 8.2064943e-39
-0.063967548 -0.25029561 1.1833172 7.4678404e-39
-0.04015404 -0.30565041 1.1470714 1.0048232e-38
-0.30740121 -0.079250701 1.5760226 6.45442e-39
-0.41504368 -0.037454247 1.7515723 6.2740028e-39
-0.5007779 0.024247274 1.8897961 5.0740149e-39
-0.44809553 0.0062704105 1.8037393 4.519025e-39
-0.49559993 -0.033734277 1.8844963 5.7212004e-39
-0.44632089 -0.04883856 1.8039027 5.997783e-39
-0.37556413 -0.059826046 1.6875824 5.6271858e-39
-0.33525568 -0.070254922 1.6215516 6.086006e-39
-0.26419896 -0.096664652 1.5056019 6.8221263e-39
-0.30554476 -0.13906039 1.576315 9.3157383e-39
-0.35682538 -0.12194358 1.6601034 7.8391635e-39
-0.33244333 -0.14489727 1.6210976 1.0421727e-38
-0.22263658 -0.16727094 1.4408802 1.005331e-38
-0.19364251 -0.15433043 1.3922353 7.1019502e-39
-0.22367248 -0.20403181 1.4446576 1.1803947e-38
-0.18075438 -0.22388007 1.3748432 1.0236967e-38
-0.25609353 -0.15088145 1.4952526 9.4079325e-39
-0.24819611 -0.20322567 1.4851418 1.2449658e-38
-0.14523947 -0.16988595 1.313115 7.1930626e-39
-0.14024489 -0.22992456 1.308234 8.115742e-39
0.077754065 -0.28321296 0.95094728 4.5172075e-39
0.10418238 -0.29511732 0.90793878 3.9625946e-39
0.078489929 -0.34238431 0.95305562 5.9912516e-39
0.11361487 -0.33105499 0.89436913 5.9912502e-39
0.15401956 -0.3216812 0.8270666 3.6813316e-39
-0.0026727598 -0.25973558 1.0825472 6.7284663e-39
0.045945834 -0.27324373 1.0029558 6.359318e-39
-0.031177472 -0.25116205 1.1291746 6.3604111e-39
0.004442526 -0.32342547 1.0743665 8.4801777e-39
0.049936723 -0.33863103 1.0000339 6.9135722e-39
-0.029152043 -0.31731981 1.1295443 1.0600318e-38
-1.1191357 0.82378829 2.866816 8.9519822e-39
-1.1105882 0.74947113 2.8568652 1.3100428e-38
-1.0677816 0.74393809 2.7864308 1.890479e-38
-1.1391501 0.95338118 2.892612 6.3748178e-39
-1.1631516 0.71709329 2.9455547 1.2451808e-38
-1.1390135 0.85089886 2.8981442 8.9512522e-39
-1.1425757 0.74846536 2.9097865 9.1356462e-39
-1.1106699 0.65124613 2.8625193 1.3744719e-38
-1.0671999 0.65095508 2.790694 1.7800245e-38
-1.1080061 0.52979606 2.8649406 1.4851073e-38
-1.0720704 0.56516385 2.8035631 2.1668495e-38
-1.1711352 0.63972008 2.9630957 1.3558885e-38
-1.1765004 0.55105519 2.9769449 1.4573759e-38
-1.1431514 0.65807927 2.9158168 1.0149076e-38
-1.1360227 0.53856784 2.9107499 9.9643321e-39
-1.1767346 0.44761384 2.9831436 1.5680479e-38
-1.1881566 0.34934804 3.0075414 1.2821688e-38
-0.80169857 0.84859025 2.3408029 2.9509748e-39
-0.75913358 0.90300292 2.2674 7.0975865e-39
-0.77363968 0.86230105 2.2936604 5.8101127e-39
-0.98491687 0.94848776 2.63799 1.8763246e-40
-0.98099446 0.95708609 2.6310244 1.2003579e-39
-1.0099789 0.83959818 2.6855271 1.7798805e-38
-1.0108156 0.75703746 2.6915491 1.7428584e-38
-1.038254 0.84143847 2.7321534 1.6145416e-38
