# .PCD v0.7 - Point Cloud Data file format
VERSION 0.7
FIELDS x y z rgb
SIZE 4 4 4 4
TYPE F F F F
COUNT 1 1 1 1
WIDTH 764
HEIGHT 1
VIEWPOINT 0 0 0 1 0 0 0
POINTS 764
DATA ascii
1.0000035 -0.97021282 0.99960947 2.3436058e-38
1.0000015 -0.98910379 0.99960953 2.3436058e-38
0.98962981 -0.98909485 0.99961263 2.3509598e-38
0.96913677 -0.98855895 0.99961871 2.3509598e-38
0.95309293 -0.99121791 0.99962336 2.3509598e-38
0.92658234 -0.98950446 0.99963123 2.3509598e-38
0.91140378 -0.99022627 0.99963576 2.3509598e-38
0.89138025 -0.98768866 0.99964172 2.3509598e-38
0.87174338 -0.99048185 0.99964744 2.3509598e-38
0.84815818 -0.98981076 0.99965447 2.3509598e-38
0.82577705 -0.99331653 0.99966115 2.3509598e-38
0.81329018 -0.99204969 0.99966484 2.3509598e-38
0.79258668 -0.98958027 0.99967092 2.3509598e-38
0.76777095 -0.98702574 0.99967831 2.3509598e-38
0.75018233 -0.99186653 0.99968344 2.3509598e-38
0.72787589 -0.98739815 0.99969012 2.3509598e-38
0.70984787 -0.9889034 0.99969536 2.3509598e-38
0.69052982 -0.98950922 0.99970108 2.3509598e-38
0.67111397 -0.98952031 0.99970692 2.3509598e-38
0.6528756 -0.99197787 0.99971229 2.3509598e-38
0.63404024 -0.99017686 0.99971789 2.3509598e-38
0.60847086 -0.98854077 0.9997254 2.3509598e-38
0.59137708 -0.99091232 0.99973053 2.3509598e-38
0.56946743 -0.99172354 0.99973696 2.3509598e-38
0.54921138 -0.99066103 0.99974293 2.3509598e-38
0.53047907 -0.99036378 0.99974853 2.3509598e-38
0.5115549 -0.98964721 0.99975413 2.3509598e-38
0.48852965 -0.99114084 0.99976093 2.3509598e-38
0.47274286 -0.99063635 0.99976557 2.3509598e-38
0.45255888 -0.99010432 0.99977154 2.3509598e-38
0.42832655 -0.99158043 0.99977869 2.3509598e-38
0.41187558 -0.99118251 0.99978358 2.3509598e-38
0.3869901 -0.99366164 0.99979097 2.3509598e-38
0.35057631 -0.99343723 0.99980181 2.3509598e-38
0.32940891 -0.98867905 0.99980801 2.3509598e-38
0.31040263 -0.99228585 0.99981362 2.3509598e-38
0.28742975 -0.98845786 0.99982041 2.3509598e-38
0.27221891 -0.98973119 0.99982494 2.3509598e-38
0.25051099 -0.98956138 0.99983138 2.3509598e-38
0.23330864 -0.98908681 0.9998365 2.3509598e-38
0.20633951 -0.98966914 0.99984449 2.3509598e-38
0.19073619 -0.99023998 0.99984902 2.3509598e-38
0.16650726 -0.9898265 0.99985629 2.3509598e-38
0.1492548 -0.98971194 0.9998613 2.3509598e-38
0.12919703 -0.99064583 0.99986726 2.3509598e-38
0.11201648 -0.9931187 0.99987239 2.3509598e-38
0.090316869 -0.99244797 0.99987882 2.3509598e-38
0.071304582 -0.99026084 0.99988443 2.3509598e-38
0.05168318 -0.98965371 0.99989027 2.3509598e-38
0.029993398 -0.99176621 0.99989671 2.3509598e-38
0.0099303434 -0.99008793 0.99990255 2.3509598e-38
-0.0095857726 -0.98877603 0.99990839 2.3509598e-38
-0.030050607 -0.99350595 0.99991441 2.3509598e-38
-0.049506161 -0.98845541 0.99992019 2.3509598e-38
-0.07018505 -0.98772854 0.99992633 2.3509598e-38
-0.088068329 -0.99104893 0.99993157 2.3509598e-38
-0.11227848 -0.99043489 0.99993879 2.3509598e-38
-0.12811376 -0.98987973 0.99994344 2.3509598e-38
-0.14853422 -0.99016905 0.99994951 2.3509598e-38
-0.17029625 -0.99122196 0.99995595 2.3509598e-38
-0.19277723 -0.99233478 0.99996257 2.3509598e-38
-0.20855708 -0.99080318 0.99996728 2.3509598e-38
-0.22991477 -0.98975039 0.9999736 2.3509598e-38
-0.25170502 -0.9875465 0.99998003 2.3509598e-38
-0.27108952 -0.99232906 0.99998575 2.3509598e-38
-0.29195642 -0.99117148 0.99999195 2.3509598e-38
-0.30898142 -0.99032497 0.99999696 2.3509598e-38
-0.32928035 -0.98992038 1.000003 2.3509598e-38
-0.35085645 -0.9900853 1.0000093 2.3509598e-38
-0.36989239 -0.99098438 1.000015 2.3509598e-38
-0.38939127 -0.99347371 1.0000207 2.3509598e-38
-0.40856895 -0.98951983 1.0000265 2.3509598e-38
-0.42864016 -0.98972148 1.0000324 2.3509598e-38
-0.45411903 -0.98913121 1.0000399 2.3509598e-38
-0.46838242 -0.98777425 1.0000441 2.3509598e-38
-0.4862861 -0.99094921 1.0000495 2.3509598e-38
-0.51146477 -0.99460411 1.000057 2.3509598e-38
-0.52799571 -0.99223655 1.0000618 2.3509598e-38
-0.55229044 -0.98866951 1.000069 2.3509598e-38
-0.56928837 -0.98923999 1.000074 2.3509598e-38
-0.59132439 -0.99009824 1.0000806 2.3509598e-38
-0.61331147 -0.98933399 1.000087 2.3509598e-38
-0.63001812 -0.98852658 1.000092 2.3509598e-38
-0.65069455 -0.98679459 1.0000981 2.3509598e-38
-0.6696077 -0.99220872 1.0001037 2.3509598e-38
-0.70762801 -0.99176431 1.0001149 2.3509598e-38
-0.73478794 -0.99189824 1.000123 2.3509598e-38
-0.77118152 -0.99295926 1.0001338 2.3509598e-38
-0.78843093 -0.99067062 1.0001389 2.3509598e-38
-0.81112903 -0.98983586 1.0001457 2.3509598e-38
-0.8312012 -0.98781198 1.0001516 2.3509598e-38
-0.85282624 -0.98874807 1.000158 2.3509598e-38
-0.87108809 -0.99361157 1.0001633 2.3509598e-38
-0.88763148 -0.99147278 1.0001683 2.3509598e-38
-0.91042131 -0.98867959 1.000175 2.3509598e-38
-0.93070519 -0.98863447 1.000181 2.3509598e-38
-0.94953769 -0.99197292 1.0001866 2.3509598e-38
-0.96827298 -0.99413806 1.0001922 2.3509598e-38
-0.98849159 -0.99166417 1.0001981 2.3509598e-38
-0.98795748 -0.97203135 1.0001979 2.3509598e-38
-0.98833823 -0.95088375 1.0001979 2.3509598e-38
-0.99104542 -0.92824769 1.0001986 2.3509598e-38
-0.9915061 -0.90909654 1.0001986 2.3509598e-38
-0.98797208 -0.88861626 1.0001975 2.3509598e-38
-0.98825753 -0.87116289 1.0001975 2.3509598e-38
-0.98782855 -0.85105556 1.0001974 2.3509598e-38
-0.99178469 -0.83147132 1.0001984 2.3509598e-38
-0.99278253 -0.8086552 1.0001986 2.3509598e-38
-0.99107701 -0.79051501 1.0001981 2.3509598e-38
-0.98914647 -0.76893049 1.0001974 2.3509598e-38
-0.99056101 -0.74988472 1.0001976 2.3509598e-38
-0.9872573 -0.72915947 1.0001967 2.3509598e-38
-0.98804337 -0.71277785 1.0001968 2.3509598e-38
-0.99176168 -0.68937612 1.0001978 2.3509598e-38
-0.99344558 -0.65158969 1.0001981 2.3509598e-38
-0.99205428 -0.62950176 1.0001976 2.3509598e-38
-0.98873353 -0.61036378 1.0001965 2.3509598e-38
-0.99181241 -0.59209102 1.0001974 2.3509598e-38
-0.99237132 -0.57145959 1.0001974 2.3509598e-38
-0.99082476 -0.54875422 1.0001969 2.3509598e-38
-0.98867029 -0.52895373 1.0001962 2.3509598e-38
-0.98918784 -0.5077064 1.0001962 2.3509598e-38
-0.98875332 -0.49172461 1.000196 2.3509598e-38
-0.98420805 -0.46878964 1.0001945 2.3509598e-38
-0.9885366 -0.44904527 1.0001957 2.3509598e-38
-0.98904431 -0.43224919 1.0001959 2.3509598e-38
-0.99316567 -0.41042429 1.0001969 2.3509598e-38
-0.98843414 -0.39021331 1.0001955 2.3509598e-38
-0.98952359 -0.3687709 1.0001957 2.3509598e-38
-0.98894268 -0.32883665 1.0001954 2.3509598e-38
-0.99008852 -0.30868146 1.0001956 2.3509598e-38
-0.98911053 -0.28943038 1.0001953 2.3509598e-38
-0.98916906 -0.27442214 1.0001953 2.3509598e-38
-0.99023539 -0.25083044 1.0001954 2.3509598e-38
-0.98912054 -0.22870199 1.000195 2.3509598e-38
-0.9915778 -0.21193363 1.0001956 2.3509598e-38
-0.98786205 -0.19088143 1.0001945 2.3509598e-38
-0.98926222 -0.17197339 1.0001948 2.3509598e-38
-0.99336016 -0.15067738 1.000196 2.3509598e-38
-0.99183577 -0.12838423 1.0001953 2.3509598e-38
-0.98939151 -0.10934603 1.0001945 2.3509598e-38
-0.99018788 -0.090422392 1.0001948 2.3509598e-38
-0.99064976 -0.066890478 1.0001948 2.3509598e-38
-0.99154705 -0.050514098 1.000195 2.3509598e-38
-0.99028766 -0.030872632 1.0001945 2.3509598e-38
-0.99360901 -0.011320471 1.0001954 2.3509598e-38
-0.99003971 0.012839271 1.0001942 2.3509598e-38
-0.99029404 0.027677728 1.0001943 2.3509598e-38
-0.98932415 0.050859593 1.0001938 2.3509598e-38
-0.98851448 0.068787433 1.0001936 2.3509598e-38
-0.9900561 0.089822873 1.0001938 2.3509598e-38
-0.99097562 0.10795776 1.0001941 2.3509598e-38
-0.99050313 0.13081591 1.0001938 2.3509598e-38
-0.98890191 0.15133438 1.0001934 2.3509598e-38
-0.98945904 0.17072062 1.0001934 2.3509598e-38
-0.99139422 0.18757567 1.0001938 2.3509598e-38
-0.99235398 0.20866634 1.0001941 2.3509598e-38
-0.99023271 0.22940063 1.0001934 2.3509598e-38
-0.99230433 0.25044271 1.0001938 2.3509598e-38
-0.99166894 0.2697393 1.0001936 2.3509598e-38
-0.98908186 0.2868914 1.0001928 2.3509598e-38
-0.99140173 0.30894965 1.0001934 2.3509598e-38
-0.99042559 0.32927588 1.0001929 2.3509598e-38
-0.99042213 0.35304603 1.0001929 2.3509598e-38
-0.98941308 0.36845168 1.0001924 2.3509598e-38
-0.98731309 0.38867658 1.0001918 2.3509598e-38
-0.9896974 0.41077858 1.0001924 2.3509598e-38
-0.99100512 0.42807618 1.0001926 2.3509598e-38
-0.9897331 0.44652438 1.0001923 2.3509598e-38
-0.98855805 0.47153926 1.0001918 2.3509598e-38
-0.98956794 0.49037659 1.0001919 2.3509598e-38
-0.98848248 0.51033604 1.0001917 2.3509598e-38
-0.9954735 0.52986896 1.0001936 2.3509598e-38
-0.99193925 0.56812078 1.0001924 2.3509598e-38
-0.99031788 0.59129858 1.0001918 2.3509598e-38
-0.99261773 0.61049652 1.0001924 2.3509598e-38
-0.99144703 0.65017498 1.0001919 2.3509598e-38
-0.9933871 0.66772646 1.0001924 2.3509598e-38
-0.98902619 0.69079149 1.000191 2.3509598e-38
-0.99039066 0.7134468 1.0001912 2.3509598e-38
-0.99851412 0.74378127 1.0001936 2.3509598e-38
-0.99254197 0.76969177 1.0001917 2.3509598e-38
-0.98932832 0.79279882 1.0001906 2.3509598e-38
-0.98859495 0.8093707 1.0001903 2.3509598e-38
-0.99176323 0.8273868 1.0001912 2.3509598e-38
-0.99053931 0.84864205 1.0001907 2.3509598e-38
-0.98925978 0.87312418 1.0001903 2.3509598e-38
-0.99047029 0.8877247 1.0001905 2.3509598e-38
-0.98821443 0.90683818 1.0001898 2.3509598e-38
-0.98871881 0.92951876 1.0001898 2.3509598e-38
-0.98891407 0.95093405 1.0001898 2.3509598e-38
-0.99115139 0.96821237 1.0001905 2.3509598e-38
-0.99139518 0.98941773 1.0001904 2.3509598e-38
-0.97071213 0.99277419 1.0001843 2.3509598e-38
-0.94880396 0.98940802 1.0001779 2.3509598e-38
-0.93094927 0.98967904 1.0001725 2.3509598e-38
-0.91285396 0.98881 1.0001671 2.3509598e-38
-0.888767 0.99022675 1.00016 2.3509598e-38
-0.87000418 0.98970079 1.0001545 2.3509598e-38
-0.85106069 0.98981947 1.0001488 2.3509598e-38
-0.82634377 0.99307168 1.0001416 2.3509598e-38
-0.80783421 0.99663699 1.000136 2.3509598e-38
-0.79209197 0.99178141 1.0001314 2.3509598e-38
-0.76879442 0.99232006 1.0001245 2.3509598e-38
-0.72872275 0.98998547 1.0001127 2.3509598e-38
-0.7056306 0.98872083 1.0001059 2.3509598e-38
-0.6872043 0.98904669 1.0001004 2.3509598e-38
-0.66666919 0.99102765 1.0000943 2.3509598e-38
-0.65061963 0.99199951 1.0000895 2.3509598e-38
-0.63153338 0.99059963 1.0000839 2.3509598e-38
-0.61032891 0.99068695 1.0000776 2.3509598e-38
-0.58883268 0.99345279 1.0000713 2.3509598e-38
-0.57146573 0.98864073 1.000066 2.3509598e-38
-0.54703259 0.98944932 1.0000589 2.3509598e-38
-0.52811706 0.98948687 1.0000533 2.3509598e-38
-0.51202089 0.98941803 1.0000485 2.3509598e-38
-0.4907119 0.99282187 1.0000422 2.3509598e-38
-0.45127577 0.99387884 1.0000305 2.3509598e-38
-0.42963615 0.98964018 1.0000241 2.3509598e-38
-0.4077335 0.9916743 1.0000176 2.3509598e-38
-0.39116398 0.98963082 1.0000128 2.3509598e-38
-0.37068245 0.99149406 1.0000067 2.3509598e-38
-0.35048544 0.98840469 1.0000007 2.3509598e-38
-0.32998291 0.99113685 0.99999464 2.3509598e-38
-0.308799 0.99037969 0.99998832 2.3509598e-38
-0.29081774 0.98758179 0.99998301 2.3509598e-38
-0.26910114 0.9892233 0.99997658 2.3509598e-38
-0.25054121 0.99058181 0.99997109 2.3509598e-38
-0.22914718 0.99133718 0.99996477 2.3509598e-38
-0.21242815 0.99257302 0.99995983 2.3509598e-38
-0.17038359 0.99072593 0.99994737 2.3509598e-38
-0.14901583 0.99247718 0.99994105 2.3509598e-38
-0.12883011 0.99118149 0.99993509 2.3509598e-38
-0.11055581 0.99105817 0.99992967 2.3509598e-38
-0.087462544 0.98889953 0.99992281 2.3509598e-38
-0.07210882 0.98762685 0.99991828 2.3509598e-38
-0.050329018 0.98857725 0.99991184 2.3509598e-38
-0.02777398 0.99340838 0.99990517 2.3509598e-38
0.0099275392 0.9894554 0.99989396 2.3509598e-38
0.030719526 0.98969126 0.99988788 2.3509598e-38
0.053392075 0.9881115 0.99988109 2.3509598e-38
0.06977918 0.99066538 0.99987632 2.3509598e-38
0.091523744 0.9936924 0.99986988 2.3509598e-38
0.13046403 0.99192154 0.99985832 2.3509598e-38
0.14784107 0.98942727 0.99985319 2.3509598e-38
0.16644974 0.99336255 0.99984771 2.3509598e-38
0.18889189 0.99025261 0.99984103 2.3509598e-38
0.21127062 0.98968112 0.99983436 2.3509598e-38
0.23016864 0.98878652 0.99982876 2.3509598e-38
0.24926057 0.98961359 0.99982315 2.3509598e-38
0.27008498 0.98970735 0.99981695 2.3509598e-38
0.29245192 0.99256974 0.9998104 2.3509598e-38
0.31082943 0.99039614 0.99980491 2.3509598e-38
0.32751161 0.99266064 0.99980003 2.3509598e-38
0.34810573 0.99030864 0.99979395 2.3509598e-38
0.3695612 0.99168587 0.99978751 2.3509598e-38
0.38884619 0.98889267 0.99978191 2.3509598e-38
0.41251129 0.98911041 0.99977487 2.3509598e-38
0.42878509 0.98787582 0.99976999 2.3509598e-38
0.45031539 0.99016905 0.99976367 2.3509598e-38
0.49041778 0.99499846 0.99975175 2.3509598e-38
0.50957578 0.99277067 0.99974614 2.3509598e-38
0.5288198 0.99103618 0.99974042 2.3509598e-38
0.55067211 0.9904511 0.99973398 2.3509598e-38
0.56939781 0.98926395 0.99972838 2.3509598e-38
0.5939129 0.99057329 0.99972111 2.3509598e-38
0.61059123 0.98842621 0.99971622 2.3509598e-38
0.63356793 0.99378252 0.99970943 2.3509598e-38
0.64860362 0.99204743 0.99970502 2.3509598e-38
0.66978586 0.99074423 0.9996987 2.3509598e-38
0.6918565 0.98897719 0.99969214 2.3509598e-38
0.71097589 0.99049819 0.99968654 2.3509598e-38
0.73266971 0.9897415 0.9996801 2.3509598e-38
0.7504707 0.99224734 0.99967486 2.3509598e-38
0.77115977 0.99249148 0.99966866 2.3509598e-38
0.79206973 0.98746455 0.99966246 2.3509598e-38
0.81129086 0.98892081 0.99965686 2.3509598e-38
0.82978398 0.98711979 0.99965137 2.3509598e-38
0.85072875 0.98690903 0.99964517 2.3509598e-38
0.87046236 0.98922813 0.99963933 2.3509598e-38
0.8884564 0.99163139 0.99963397 2.3509598e-38
0.90565574 0.98726887 0.99962884 2.3509598e-38
0.93196994 0.98901838 0.99962109 2.3509598e-38
0.95021778 0.98866951 0.99961573 2.3509598e-38
0.97346503 0.99078149 0.99960881 2.3509598e-38
0.99006498 0.99366331 0.99960393 2.3509598e-38
1.0000029 0.98690921 0.99960095 2.3436058e-38
1.0000031 0.97309357 0.99960101 2.3436058e-38
1.0000032 0.94958711 0.99960113 2.3436058e-38
1.000003 0.93572921 0.99960119 2.3436058e-38
1.000002 0.90761155 0.9996013 2.3436058e-38
1.0000036 0.88809133 0.99960136 2.3436058e-38
1.0000035 0.86896384 0.99960148 2.3436058e-38
1.0000023 0.84972006 0.99960154 2.3436058e-38
1.0000027 0.83172393 0.9996016 2.3436058e-38
1.0000024 0.80812693 0.99960172 2.3436058e-38
1.000003 0.7881909 0.99960184 2.3436058e-38
1.0000038 0.77003574 0.9996019 2.3436058e-38
1.0000026 0.74927574 0.99960196 2.3436058e-38
1.0000032 0.7295869 0.99960208 2.3436058e-38
1.000003 0.71128291 0.99960214 2.3436058e-38
1.0000027 0.69322753 0.99960226 2.3436058e-38
1.0000032 0.67308986 0.99960232 2.3436058e-38
1.0000026 0.65210617 0.99960244 2.3436058e-38
1.000003 0.63262826 0.9996025 2.3436058e-38
1.0000033 0.61254001 0.99960256 2.3436058e-38
1.0000041 0.58826804 0.99960268 2.3436058e-38
1.0000025 0.57057774 0.99960274 2.3436058e-38
1.0000027 0.548648 0.99960285 2.3436058e-38
1.0000033 0.52937597 0.99960291 2.3436058e-38
1.000003 0.50604016 0.99960303 2.3436058e-38
1.0000026 0.48934841 0.99960309 2.3436058e-38
1.0000024 0.47067881 0.99960321 2.3436058e-38
1.0000026 0.45048895 0.99960327 2.3436058e-38
1.0000029 0.429582 0.99960339 2.3436058e-38
1.0000029 0.41086563 0.99960345 2.3436058e-38
1.0000027 0.38811961 0.99960357 2.3436058e-38
1.0000036 0.37184036 0.99960363 2.3436058e-38
1.0000038 0.35253689 0.99960369 2.3436058e-38
1.0000026 0.33062696 0.99960381 2.3436058e-38
1.0000025 0.30499834 0.99960393 2.3436058e-38
1.0000027 0.28869057 0.99960399 2.3436058e-38
1.0000036 0.2701847 0.99960405 2.3436058e-38
1.0000027 0.25101534 0.99960417 2.3436058e-38
1.0000026 0.22960874 0.99960423 2.3436058e-38
1.0000033 0.2079227 0.99960434 2.3436058e-38
1.000003 0.19295134 0.9996044 2.3436058e-38
1.000003 0.17230712 0.99960446 2.3436058e-38
1.0000037 0.14942531 0.99960458 2.3436058e-38
1.0000031 0.12953457 0.9996047 2.3436058e-38
1.000003 0.11364977 0.99960476 2.3436058e-38
1.0000045 0.094615526 0.99960482 2.3436058e-38
1.0000033 0.07102681 0.99960494 2.3436058e-38
1.0000029 0.052180938 0.999605 2.3436058e-38
1.0000026 0.029627552 0.99960512 2.3436058e-38
1.000002 0.011814497 0.99960518 2.3436058e-38
1.0000031 -0.0068151979 0.99960524 2.3436058e-38
1.0000023 -0.031275239 0.99960536 2.3436058e-38
1.0000032 -0.052904218 0.99960548 2.3436058e-38
1.0000024 -0.067333937 0.99960554 2.3436058e-38
1.0000029 -0.089641564 0.99960566 2.3436058e-38
1.000003 -0.11141609 0.99960572 2.3436058e-38
1.0000021 -0.13203196 0.99960583 2.3436058e-38
1.0000036 -0.15221973 0.99960589 2.3436058e-38
1.000003 -0.17319299 0.99960601 2.3436058e-38
1.0000026 -0.19288726 0.99960607 2.3436058e-38
1.0000031 -0.21344696 0.99960619 2.3436058e-38
1.0000026 -0.22824886 0.99960625 2.3436058e-38
1.0000033 -0.25156584 0.99960631 2.3436058e-38
1.0000025 -0.27533072 0.99960643 2.3436058e-38
1.0000042 -0.29043525 0.99960649 2.3436058e-38
1.0000027 -0.30943909 0.99960661 2.3436058e-38
1.0000018 -0.32947868 0.99960667 2.3436058e-38
1.0000038 -0.35055491 0.99960679 2.3436058e-38
1.0000031 -0.37009293 0.99960685 2.3436058e-38
1.0000036 -0.38874084 0.99960691 2.3436058e-38
1.0000024 -0.41065162 0.99960703 2.3436058e-38
1.0000023 -0.43055353 0.99960709 2.3436058e-38
1.000003 -0.45328736 0.99960721 2.3436058e-38
1.0000033 -0.47026426 0.99960726 2.3436058e-38
1.0000026 -0.4911795 0.99960738 2.3436058e-38
1.0000043 -0.51166558 0.99960744 2.3436058e-38
1.0000024 -0.52971023 0.99960756 2.3436058e-38
1.0000033 -0.55253631 0.99960762 2.3436058e-38
1.000002 -0.56844246 0.99960768 2.3436058e-38
1.0000027 -0.5929113 0.9996078 2.3436058e-38
1.0000021 -0.60782415 0.99960786 2.3436058e-38
1.0000029 -0.62675691 0.99960798 2.3436058e-38
1.0000026 -0.65446079 0.9996081 2.3436058e-38
1.0000038 -0.67045403 0.99960816 2.3436058e-38
1.000003 -0.68809497 0.99960822 2.3436058e-38
1.0000021 -0.71223658 0.99960834 2.3436058e-38
1.0000042 -0.72750211 0.9996084 2.3436058e-38
1.0000032 -0.7479043 0.99960846 2.3436058e-38
1.0000029 -0.76831919 0.99960858 2.3436058e-38
1.0000031 -0.79002106 0.99960864 2.3436058e-38
1.000002 -0.81364244 0.99960876 2.3436058e-38
1.0000046 -0.82942784 0.99960881 2.3436058e-38
1.0000031 -0.85141844 0.99960893 2.3436058e-38
1.0000017 -0.86790746 0.99960899 2.3436058e-38
1.0000025 -0.89026242 0.99960911 2.3436058e-38
1.0000024 -0.90902883 0.99960917 2.3436058e-38
1.0000015 -0.93353254 0.99960929 2.3436058e-38
1.0000026 -0.94726145 0.99960935 2.3436058e-38
1 0.68668115 0.96962547 2.3436058e-38
1 0.71285224 0.96780467 2.3436058e-38
1 0.73072577 0.96733046 2.3436058e-38
1 0.7502774 0.97034991 2.3436058e-38
1 0.77054477 0.96882564 2.3436058e-38
1 0.78989834 0.96982378 2.3436058e-38
1 0.80911058 0.97208029 2.3436058e-38
1 0.84911412 0.97355831 2.3436058e-38
1 0.86934704 0.96995306 2.3436058e-38
1 0.88734442 0.97121876 2.3436058e-38
1 0.91099423 0.97109407 2.3436058e-38
1 0.93079078 0.97304887 2.3436058e-38
1 0.97137529 0.97334713 2.3436058e-38
1 0.9922272 0.96883917 2.3436058e-38
1 0.99013501 0.95026904 2.3436058e-38
1 0.98563594 0.92902935 2.3436058e-38
1 0.98786247 0.91121942 2.3436058e-38
1 0.98988616 0.88767266 2.3436058e-38
1 0.98941183 0.86703467 2.3436058e-38
1 0.98976076 0.84822559 2.3436058e-38
1 0.98797828 0.82858306 2.3436058e-38
1 0.99030524 0.81028521 2.3436058e-38
1 0.99150044 0.79108429 2.3436058e-38
1 0.99282122 0.75457728 2.3436058e-38
1 0.98897725 0.73127341 2.3436058e-38
1 0.99388427 0.70946693 2.3436058e-38
1 0.99207604 0.68616462 2.3436058e-38
1 0.99243319 0.65196651 2.3436058e-38
1 0.99310583 0.62875313 2.3436058e-38
1 0.99285489 0.59154397 2.3436058e-38
1 0.98785168 0.56831795 2.3436058e-38
1 0.98948133 0.55119252 2.3436058e-38
1 0.9909839 0.5296132 2.3436058e-38
1 0.99082494 0.51180464 2.3436058e-38
1 0.99090904 0.48666707 2.3436058e-38
1 0.9912014 0.45264789 2.3436058e-38
1 0.99251598 0.43017703 2.3436058e-38
1 0.98979467 0.40744466 2.3436058e-38
1 0.98916966 0.38934425 2.3436058e-38
1 0.99350327 0.36786404 2.3436058e-38
1 0.99294043 0.35051304 2.3436058e-38
1 0.98959142 0.32510293 2.3436058e-38
1 0.98998278 0.31170586 2.3436058e-38
1 0.99108803 0.28960884 2.3436058e-38
1 0.98799753 0.27074349 2.3436058e-38
1 0.98817283 0.24952951 2.3436058e-38
1 0.99137658 0.22792894 2.3436058e-38
1 0.99272984 0.21009806 2.3436058e-38
1 0.99173689 0.19028847 2.3436058e-38
1 0.98962468 0.17010224 2.3436058e-38
1 0.99017978 0.14843069 2.3436058e-38
1 0.98984611 0.1298539 2.3436058e-38
1 0.99216312 0.10994472 2.3436058e-38
1 0.98967683 0.090120129 2.3436058e-38
1 0.98929739 0.06941326 2.3436058e-38
1 0.99026746 0.05219163 2.3436058e-38
1 0.99221528 0.027822733 2.3436058e-38
1 0.99230021 0.011659527 2.3436058e-38
1 0.98976517 -0.009419282 2.3436058e-38
1 0.98971361 -0.02984798 2.3436058e-38
1 0.98684019 -0.054304123 2.3436058e-38
1 0.98636907 -0.069224276 2.3436058e-38
1 0.98936719 -0.089893185 2.3436058e-38
1 0.98895973 -0.11323458 2.3436058e-38
1 0.98899627 -0.13118023 2.3436058e-38
1 0.98805052 -0.1499168 2.3436058e-38
1 0.98937482 -0.17117304 2.3436058e-38
1 0.98849452 -0.19164343 2.3436058e-38
1 0.98719811 -0.21029145 2.3436058e-38
1 0.99041611 -0.23088844 2.3436058e-38
1 0.99070644 -0.24433766 2.3436058e-38
1 0.99323028 -0.26831189 2.3436058e-38
1 0.98972499 -0.29094201 2.3436058e-38
1 0.9863013 -0.313766 2.3436058e-38
1 0.98728257 -0.33069077 2.3436058e-38
1 0.98850679 -0.34787285 2.3436058e-38
1 0.9884457 -0.3694405 2.3436058e-38
1 0.99048108 -0.39095804 2.3436058e-38
1 0.99289948 -0.41402054 2.3436058e-38
1 0.99512476 -0.4315657 2.3436058e-38
1 0.98906839 -0.45078886 2.3436058e-38
1 0.98926675 -0.4694539 2.3436058e-38
1 0.98810303 -0.49180657 2.3436058e-38
1 0.98906207 -0.5095492 2.3436058e-38
1 0.99325836 -0.52776402 2.3436058e-38
1 0.99159586 -0.54810894 2.3436058e-38
1 0.99026406 -0.57063979 2.3436058e-38
1 0.99296051 -0.58937234 2.3436058e-38
1 0.99100864 -0.60739475 2.3436058e-38
1 0.98701972 -0.62958753 2.3436058e-38
1 0.98761517 -0.64921683 2.3436058e-38
1 0.99202693 -0.66766334 2.3436058e-38
1 0.98944753 -0.69193906 2.3436058e-38
1 0.9901613 -0.71140164 2.3436058e-38
1 0.98987609 -0.731866 2.3436058e-38
1 0.98697466 -0.74897975 2.3436058e-38
1 0.98610824 -0.76726925 2.3436058e-38
1 0.990785 -0.79394126 2.3436058e-38
1 0.99242264 -0.80920964 2.3436058e-38
1 0.98878467 -0.83050054 2.3436058e-38
1 0.99211287 -0.85163665 2.3436058e-38
1 0.99388206 -0.86852533 2.3436058e-38
1 0.98879826 -0.88863659 2.3436058e-38
1 0.98707604 -0.9044404 2.3436058e-38
1 0.98873168 -0.92933583 2.3436058e-38
1 0.98913932 -0.94693458 2.3436058e-38
1 0.99092644 -0.97248429 2.3436058e-38
1 0.99227583 -0.98941845 2.3436058e-38
1 0.96943009 -0.98804843 2.3436058e-38
1 0.95148289 -0.99252665 2.3436058e-38
1 0.92838371 -0.98996735 2.3436058e-38
1 0.91096228 -0.9922027 2.3436058e-38
1 0.8897599 -0.98919779 2.3436058e-38
1 0.86833036 -0.99304402 2.3436058e-38
1 0.85011882 -0.98979402 2.3436058e-38
1 0.83023876 -0.98901206 2.3436058e-38
1 0.8108654 -0.99118531 2.3436058e-38
1 0.7921052 -0.98952788 2.3436058e-38
1 0.76795638 -0.99275166 2.3436058e-38
1 0.75137103 -0.99075747 2.3436058e-38
1 0.72598475 -0.9903962 2.3436058e-38
1 0.71036559 -0.9881618 2.3436058e-38
1 0.68761724 -0.98624414 2.3436058e-38
1 0.67184353 -0.99093091 2.3436058e-38
1 0.65139049 -0.99137235 2.3436058e-38
1 0.63185096 -0.98847687 2.3436058e-38
1 0.60950059 -0.99303198 2.3436058e-38
1 0.58595121 -0.99279702 2.3436058e-38
1 0.56993306 -0.98908943 2.3436058e-38
1 0.54975414 -0.98850405 2.3436058e-38
1 0.53339261 -0.99313366 2.3436058e-38
1 0.50811452 -0.99003464 2.3436058e-38
1 0.49113718 -0.98969376 2.3436058e-38
1 0.47362444 -0.9919197 2.3436058e-38
1 0.43241575 -0.98915392 2.3436058e-38
1 0.40972215 -0.98744595 2.3436058e-38
1 0.38992521 -0.99104571 2.3436058e-38
1 0.36709458 -0.99125963 2.3436058e-38
1 0.34758276 -0.99280524 2.3436058e-38
1 0.3331227 -0.98992234 2.3436058e-38
1 0.3114323 -0.99036807 2.3436058e-38
1 0.28973398 -0.99067569 2.3436058e-38
1 0.26867524 -0.9868986 2.3436058e-38
1 0.25078768 -0.98823845 2.3436058e-38
1 0.22785684 -0.98927426 2.3436058e-38
1 0.21143161 -0.98786908 2.3436058e-38
1 0.19073434 -0.99167717 2.3436058e-38
1 0.16827345 -0.99082983 2.3436058e-38
1 0.15248409 -0.99168414 2.3436058e-38
1 0.13265905 -0.99048132 2.3436058e-38
1 0.090796255 -0.99225324 2.3436058e-38
1 0.073425159 -0.98681796 2.3436058e-38
1 0.045435023 -0.98932439 2.3436058e-38
1 0.030039471 -0.99263495 2.3436058e-38
1 0.010221409 -0.99141711 2.3436058e-38
1 -0.0073282383 -0.98991501 2.3436058e-38
1 -0.032468408 -0.98990148 2.3436058e-38
1 -0.050695024 -0.99036044 2.3436058e-38
1 -0.07274811 -0.98960781 2.3436058e-38
1 -0.096410751 -0.98968405 2.3436058e-38
1 -0.10828104 -0.98742485 2.3436058e-38
1 -0.12909031 -0.98819518 2.3436058e-38
1 -0.15231776 -0.99122465 2.3436058e-38
1 -0.1704405 -0.99200207 2.3436058e-38
1 -0.21004391 -0.99216825 2.3436058e-38
1 -0.23057823 -0.98673582 2.3436058e-38
1 -0.24970832 -0.98814112 2.3436058e-38
1 -0.26984882 -0.98762107 2.3436058e-38
1 -0.29007468 -0.98978579 2.3436058e-38
1 -0.30905649 -0.98986727 2.3436058e-38
1 -0.33043629 -0.98786592 2.3436058e-38
1 -0.34931263 -0.99377096 2.3436058e-38
1 -0.37176004 -0.9876579 2.3436058e-38
1 -0.39166591 -0.98726887 2.3436058e-38
1 -0.40646037 -0.98849297 2.3436058e-38
1 -0.42971912 -0.99020302 2.3436058e-38
1 -0.44971853 -0.99057424 2.3436058e-38
1 -0.47054878 -0.98903722 2.3436058e-38
1 -0.48962402 -0.99433947 2.3436058e-38
1 -0.51132822 -0.98915517 2.3436058e-38
1 -0.52820897 -0.98731321 2.3436058e-38
1 -0.55202192 -0.99248481 2.3436058e-38
1 -0.56985658 -0.99165463 2.3436058e-38
1 -0.59104943 -0.98789233 2.3436058e-38
1 -0.60761708 -0.98908365 2.3436058e-38
1 -0.62941825 -0.99073803 2.3436058e-38
1 -0.64905912 -0.98870277 2.3436058e-38
1 -0.66842061 -0.98868579 2.3436058e-38
1 -0.68693936 -0.98915333 2.3436058e-38
1 -0.70904303 -0.9873566 2.3436058e-38
1 -0.73139244 -0.9890998 2.3436058e-38
1 -0.74994016 -0.9899472 2.3436058e-38
1 -0.7703414 -0.99233544 2.3436058e-38
1 -0.79532498 -0.98745537 2.3436058e-38
1 -0.81303388 -0.9885329 2.3436058e-38
1 -0.8380537 -0.99921227 2.3436058e-38
1 -0.8670705 -0.98862851 2.3436058e-38
1 -0.8893106 -0.98847365 2.3436058e-38
1 -0.90964967 -0.98902959 2.3436058e-38
1 -0.92933536 -0.989007 2.3436058e-38
1 -0.94921851 -0.99064726 2.3436058e-38
1 -0.97061127 -0.98598903 2.3436058e-38
1 -0.98825318 -0.9883917 2.3436058e-38
1 -0.98999834 -0.97010249 2.3436058e-38
1 -0.99262893 -0.95091498 2.3436058e-38
1 -0.99196064 -0.93071461 2.3436058e-38
1 -0.98997211 -0.90990371 2.3436058e-38
1 -0.99140632 -0.89087439 2.3436058e-38
1 -0.99058026 -0.8479318 2.3436058e-38
1 -0.98918819 -0.8305214 2.3436058e-38
1 -0.98843092 -0.8097139 2.3436058e-38
1 -0.99120492 -0.78864497 2.3436058e-38
1 -0.99144614 -0.76569194 2.3436058e-38
1 -0.99411362 -0.75107956 2.3436058e-38
1 -0.9887659 -0.72854507 2.3436058e-38
1 -0.98799998 -0.70989454 2.3436058e-38
1 -0.98794121 -0.69066751 2.3436058e-38
1 -0.98952907 -0.67017436 2.3436058e-38
1 -0.99020785 -0.65125459 2.3436058e-38
1 -0.98963761 -0.63084191 2.3436058e-38
1 -0.98855293 -0.61163974 2.3436058e-38
1 -0.98956257 -0.59192497 2.3436058e-38
1 -0.99286461 -0.5708375 2.3436058e-38
1 -0.98826212 -0.5486235 2.3436058e-38
1 -0.99060863 -0.53170747 2.3436058e-38
1 -0.98812062 -0.50753379 2.3436058e-38
1 -0.99072456 -0.49132851 2.3436058e-38
1 -0.99156171 -0.4694303 2.3436058e-38
1 -0.98975557 -0.45068157 2.3436058e-38
1 -0.98961014 -0.43060338 2.3436058e-38
1 -0.99119174 -0.40847528 2.3436058e-38
1 -0.99096096 -0.39214903 2.3436058e-38
1 -0.98830891 -0.37212837 2.3436058e-38
1 -0.99049896 -0.34940171 2.3436058e-38
1 -0.99204344 -0.33036003 2.3436058e-38
1 -0.99125534 -0.30960983 2.3436058e-38
1 -0.99315923 -0.28863075 2.3436058e-38
1 -0.99316543 -0.2692565 2.3436058e-38
1 -0.99131221 -0.24637905 2.3436058e-38
1 -0.99127716 -0.22881852 2.3436058e-38
1 -0.99001187 -0.21268351 2.3436058e-38
1 -0.98889863 -0.18976054 2.3436058e-38
1 -0.98694772 -0.16938105 2.3436058e-38
1 -0.99039662 -0.14925317 2.3436058e-38
1 -0.98634875 -0.13317657 2.3436058e-38
1 -0.98693991 -0.11056871 2.3436058e-38
1 -0.98981822 -0.090778254 2.3436058e-38
1 -0.99280292 -0.070028566 2.3436058e-38
1 -0.98874646 -0.053491224 2.3436058e-38
1 -0.98775071 -0.031277921 2.3436058e-38
1 -0.98741204 -0.0075562652 2.3436058e-38
1 -0.98597509 0.010531266 2.3436058e-38
1 -0.99067253 0.029792977 2.3436058e-38
1 -0.99186844 0.051796436 2.3436058e-38
1 -0.99031836 0.068754062 2.3436058e-38
1 -0.98830849 0.089502551 2.3436058e-38
1 -0.98915547 0.11092651 2.3436058e-38
1 -0.99056667 0.13275404 2.3436058e-38
1 -0.9865635 0.14988689 2.3436058e-38
1 -0.98921204 0.16894357 2.3436058e-38
1 -0.98967206 0.19100766 2.3436058e-38
1 -0.98841155 0.21361172 2.3436058e-38
1 -0.99365211 0.2307369 2.3436058e-38
1 -0.99115896 0.25110388 2.3436058e-38
1 -0.98924506 0.27292585 2.3436058e-38
1 -0.99205106 0.28937003 2.3436058e-38
1 -0.99200046 0.30959266 2.3436058e-38
1 -0.99166888 0.33013096 2.3436058e-38
1 -0.99186248 0.34857741 2.3436058e-38
1 -0.99115509 0.3704364 2.3436058e-38
1 -0.99386066 0.38978925 2.3436058e-38
1 -0.98991585 0.40923661 2.3436058e-38
1 -0.98703951 0.42864388 2.3436058e-38
1 -0.98987615 0.45238578 2.3436058e-38
1 -0.99471492 0.46992522 2.3436058e-38
1 -0.99120224 0.4899506 2.3436058e-38
1 -0.99154013 0.51123971 2.3436058e-38
1 -0.98983067 0.52806646 2.3436058e-38
1 -0.99128413 0.54645395 2.3436058e-38
1 -0.99061012 0.57155561 2.3436058e-38
1 -0.98987007 0.58948582 2.3436058e-38
1 -0.98818743 0.61078972 2.3436058e-38
1 -0.99135512 0.6297698 2.3436058e-38
1 -0.99300683 0.66817313 2.3436058e-38
1 -0.98969948 0.69171011 2.3436058e-38
1 -0.9900679 0.70935714 2.3436058e-38
1 -0.9904812 0.7280423 2.3436058e-38
1 -0.9908579 0.74880379 2.3436058e-38
1 -0.989658 0.76976162 2.3436058e-38
1 -0.99171472 0.79091603 2.3436058e-38
1 -0.99022609 0.81129318 2.3436058e-38
1 -0.99084622 0.8291626 2.3436058e-38
1 -0.99031574 0.85294896 2.3436058e-38
1 -0.99169868 0.87200725 2.3436058e-38
1 -0.9916234 0.89164889 2.3436058e-38
1 -0.98838669 0.91011661 2.3436058e-38
1 -0.98910743 0.93271834 2.3436058e-38
1 -0.98918587 0.94995868 2.3436058e-38
1 -0.98946077 0.9715693 2.3436058e-38
1 -0.96735454 0.97200936 2.3436058e-38
1 -0.94882202 0.97015357 2.3436058e-38
1 -0.93062907 0.97420549 2.3436058e-38
1 -0.88424146 0.96964908 2.3436058e-38
1 -0.86897725 0.96919608 2.3436058e-38
1 -0.84727353 0.97274017 2.3436058e-38
1 -0.82608324 0.96742493 2.3436058e-38
1 -0.81059909 0.96721202 2.3436058e-38
1 -0.78760999 0.96917677 2.3436058e-38
1 -0.77145576 0.96926498 2.3436058e-38
1 -0.75102997 0.96820509 2.3436058e-38
1 -0.73069727 0.96889234 2.3436058e-38
1 -0.70748705 0.96950573 2.3436058e-38
1 -0.68900269 0.97418571 2.3436058e-38
1 -0.66972935 0.9699499 2.3436058e-38
1 -0.6459769 0.96840966 2.3436058e-38
1 -0.62687886 0.96804917 2.3436058e-38
1 -0.61031675 0.96924132 2.3436058e-38
1 -0.59155411 0.97142023 2.3436058e-38
1 -0.56888705 0.97078693 2.3436058e-38
1 -0.53001457 0.97090411 2.3436058e-38
1 -0.51178753 0.97009665 2.3436058e-38
1 -0.4856419 0.97220248 2.3436058e-38
1 -0.47075135 0.97128803 2.3436058e-38
1 -0.45137081 0.97131717 2.3436058e-38
1 -0.42974186 0.96845025 2.3436058e-38
1 -0.41090751 0.97311461 2.3436058e-38
1 -0.38779709 0.96928543 2.3436058e-38
1 -0.36814308 0.9695977 2.3436058e-38
1 -0.35080895 0.97052497 2.3436058e-38
1 -0.32987708 0.97107697 2.3436058e-38
1 -0.3109526 0.97102505 2.3436058e-38
1 -0.28808758 0.97124273 2.3436058e-38
1 -0.27007422 0.96911246 2.3436058e-38
1 -0.24855535 0.96796119 2.3436058e-38
1 -0.23017368 0.96951139 2.3436058e-38
1 -0.21030241 0.96986818 2.3436058e-38
1 -0.18855013 0.96747959 2.3436058e-38
1 -0.17000489 0.96953219 2.3436058e-38
1 -0.15258864 0.97305083 2.3436058e-38
1 -0.13230884 0.96786952 2.3436058e-38
1 -0.11125106 0.96985823 2.3436058e-38
1 -0.091128059 0.96937519 2.3436058e-38
1 -0.072364919 0.97050232 2.3436058e-38
1 -0.054174155 0.97195697 2.3436058e-38
1 -0.029282412 0.9686901 2.3436058e-38
1 -0.010173976 0.96756858 2.3436058e-38
1 0.0095545053 0.9701516 2.3436058e-38
1 0.027637482 0.97162628 2.3436058e-38
1 0.050837137 0.96876639 2.3436058e-38
1 0.072299093 0.96980637 2.3436058e-38
1 0.089328423 0.9708187 2.3436058e-38
1 0.10854708 0.97197515 2.3436058e-38
1 0.13278723 0.96972609 2.3436058e-38
1 0.15096135 0.97034329 2.3436058e-38
1 0.17152606 0.96750414 2.3436058e-38
1 0.18753196 0.96892136 2.3436058e-38
1 0.21114351 0.97095901 2.3436058e-38
1 0.22998691 0.97359723 2.3436058e-38
1 0.24949333 0.97033358 2.3436058e-38
1 0.26956111 0.9696188 2.3436058e-38
1 0.29783249 0.96906132 2.3436058e-38
1 0.3097055 0.9682557 2.3436058e-38
1 0.32971498 0.97115117 2.3436058e-38
1 0.34768596 0.97065151 2.3436058e-38
1 0.36973023 0.97012609 2.3436058e-38
1 0.3920621 0.96989012 2.3436058e-38
1 0.40753323 0.97027886 2.3436058e-38
1 0.43288493 0.96908116 2.3436058e-38
1 0.45096928 0.97036594 2.3436058e-38
1 0.47003621 0.97185361 2.3436058e-38
1 0.48871326 0.96811295 2.3436058e-38
1 0.50764382 0.96656746 2.3436058e-38
1 0.53124958 0.96634436 2.3436058e-38
1 0.54761463 0.97130042 2.3436058e-38
1 0.57020366 0.9737429 2.3436058e-38
1 0.5926832 0.96914589 2.3436058e-38
1 0.61227894 0.97181368 2.3436058e-38
1 0.63026881 0.97197068 2.3436058e-38
1 0.65046346 0.97230285 2.3436058e-38
1 0.66656494 0.96946883 2.3436058e-38
