# .PCD v0.7 - Point Cloud Data file format
VERSION 0.7
FIELDS x y z
SIZE 4 4 4
TYPE F F F
COUNT 1 1 1
WIDTH 1437
HEIGHT 1
VIEWPOINT 0 0 0 1 0 0 0
POINTS 1437
DATA ascii
-0.40928799 -0.46727377 2.5685029
-0.39044943 -0.4674359 2.5666177
-0.36966622 -0.46780428 2.5639207
-0.3529329 -0.46583328 2.5691347
-0.33169323 -0.46758124 2.5619113
-0.30697939 -0.46619615 2.5646422
-0.29036072 -0.46514478 2.5668695
-0.26873568 -0.46474519 2.566613
-0.24957587 -0.46503541 2.5642874
-0.22960755 -0.46450272 2.5645838
-0.21022098 -0.46423969 2.564044
-0.19057134 -0.46359342 2.5647333
-0.17032455 -0.4630461 2.5650573
-0.14941265 -0.463422 2.5623264
-0.13000031 -0.46198449 2.5656099
-0.11140237 -0.46140799 2.5661478
-0.090187021 -0.46026412 2.5683451
-0.068969175 -0.46251941 2.5594711
-0.0494272 -0.462152 2.5592597
-0.030452518 -0.45870873 2.5691075
-0.0092193903 -0.45857218 2.5680223
0.0092457142 -0.45843503 2.5671389
0.028764345 -0.45818743 2.5665393
0.049350031 -0.45856687 2.5638204
0.068996526 -0.45823258 2.563494
0.08877597 -0.45928109 2.5586541
0.1116706 -0.45802438 2.5610976
0.12912433 -0.45832181 2.5588715
0.15031397 -0.45772791 2.5592797
0.17050333 -0.4573198 2.5591543
0.19265468 -0.45621267 2.5611644
0.2083814 -0.45564961 2.5618651
0.22882818 -0.45614088 2.5587924
0.24897222 -0.45592695 2.5580378
0.27012947 -0.45547161 2.5579965
0.28935099 -0.45511079 2.5577869
0.30958569 -0.45450851 2.5582912
0.32753181 -0.45414573 2.5581799
0.35220766 -0.45364693 2.5580268
0.36118075 -0.45346555 2.557971
0.38809991 -0.45292145 2.5578039
0.41230905 -0.4525094 2.5574019
0.43072194 -0.45205989 2.5575395
0.448668 -0.45169714 2.5574281
0.46714094 -0.45146874 2.5568411
0.48904678 -0.45088097 2.5571775
0.50699288 -0.45051822 2.557066
-0.54697913 -0.46639609 2.5812809
-0.52736276 -0.46586967 2.5815825
-0.51077485 -0.46546948 2.5816908
-0.49721539 -0.46519542 2.5816066
-0.42268392 -0.46388367 2.5805097
-0.41364428 -0.46370092 2.5804536
-0.32550767 -0.4619194 2.5799065
-0.31194821 -0.46164528 2.5798223
-0.19443272 -0.45926994 2.5790932
-0.083696984 -0.45703161 2.5784059
-0.067834146 -0.45780206 2.5747535
-0.049677309 -0.45677912 2.5767775
-0.027199158 -0.45588958 2.5780551
-0.0091198552 -0.45552415 2.5779431
0.0066995346 -0.45520434 2.5778449
0.032932796 -0.45459622 2.5779357
0.04971097 -0.45402336 2.578593
0.070707627 -0.45354882 2.5786257
0.090407677 -0.45312271 2.5785942
0.1107469 -0.45271164 2.5784678
0.13151935 -0.452472 2.5777521
0.15003775 -0.45400628 2.5714207
0.17115295 -0.45284709 2.5736749
0.18728043 -0.45246854 2.573746
0.21161354 -0.45099744 2.5767848
0.2304766 -0.45048627 2.5770905
0.24758086 -0.4501684 2.5768936
0.27050135 -0.45038733 2.5745294
0.28928003 -0.44910285 2.5773602
0.31010708 -0.44885692 2.5766606
0.32954484 -0.44934893 2.573658
0.34959269 -0.44870695 2.5743043
0.37051407 -0.44942918 2.5704451
0.38971972 -0.44939914 2.569159
0.40924767 -0.44816923 2.5717585
0.42934895 -0.44646642 2.5758562
0.44905272 -0.44707602 2.5724511
0.46997944 -0.44677514 2.5719235
0.48963353 -0.44676539 2.5705395
0.51203614 -0.44695649 2.5683031
0.52818722 -0.44748756 2.5654099
0.5511713 -0.44514367 2.5713882
0.56902748 -0.44309998 2.5767581
0.58781695 -0.44209462 2.5786791
0.6145041 -0.4460206 2.5639694
0.63070083 -0.44508287 2.5658567
0.65092134 -0.4447847 2.5653713
0.66862971 -0.44402817 2.5665596
0.69218773 -0.44465914 2.5628071
0.70952159 -0.44400167 2.5637
0.72618461 -0.44429258 2.561552
0.75109333 -0.44416621 2.5601692
0.76974076 -0.44398773 2.5594072
0.78547502 -0.44353575 2.5597456
0.6321553 -0.44294575 2.5727124
0.6743288 -0.44338882 2.5682313
0.68655735 -0.4406369 2.5763135
0.71676904 -0.43890378 2.5797818
0.72984821 -0.44212091 2.568361
0.75043482 -0.44206569 2.5670581
0.76946718 -0.44072616 2.5700498
0.79081023 -0.43973893 2.5717275
0.80947942 -0.44075921 2.5670598
0.83130187 -0.44077939 2.5654216
0.84960687 -0.43877965 2.570616
0.87151861 -0.43839926 2.5702767
0.89057207 -0.43807009 2.5699761
0.91041476 -0.43786147 2.569226
0.92883158 -0.43580732 2.5745897
0.9490332 -0.43632039 2.5714631
0.9937287 -0.43771493 2.5637009
1.0049449 -0.43748838 2.5636311
1.0946757 -0.43567464 2.5630741
1.1111563 -0.43521261 2.5633917
1.1290797 -0.43494698 2.5629656
1.1525178 -0.43301418 2.5675721
1.17186 -0.43368089 2.5640073
1.1889743 -0.43109491 2.5711968
1.205236 -0.4301579 2.5730774
0.85051501 -0.43444735 2.584661
0.86402881 -0.434369 2.5839429
0.93408608 -0.43295285 2.583508
0.95351475 -0.43450776 2.577044
0.98946154 -0.43650785 2.56794
1.0126367 -0.432592 2.5790243
1.1125365 -0.43451679 2.5655584
1.1280941 -0.43438694 2.5648608
1.1559154 -0.43166298 2.5717285
1.1659414 -0.43247339 2.5683665
1.190464 -0.42760366 2.5824606
1.2143762 -0.43001327 2.5728898
1.2287375 -0.43018064 2.5713103
-0.65136313 -0.46346635 2.5983431
-0.63087404 -0.46305218 2.5982161
-0.61038506 -0.46263805 2.598089
-0.58915246 -0.46227428 2.597744
-0.5698806 -0.46189779 2.5975819
-0.48773205 -0.46061161 2.5958529
-0.47078657 -0.45994708 2.5967965
-0.45102569 -0.45941687 2.5970998
-0.43508977 -0.45909476 2.5970011
-0.40549445 -0.45849651 2.5968173
-0.38858759 -0.45832923 2.5961442
-0.37045383 -0.45786664 2.5963442
-0.35085696 -0.4573921 2.5964782
-0.3371976 -0.45711604 2.5963933
-0.30304915 -0.45642579 2.5961816
-0.28746474 -0.45622283 2.5957196
-0.26747504 -0.456099 2.5946827
-0.25171646 -0.45561239 2.5951326
-0.23939745 -0.45553151 2.5945084
-0.21020223 -0.45470592 2.595094
-0.18694447 -0.45407891 2.5954609
-0.16933562 -0.45387012 2.5948722
-0.15056551 -0.45353979 2.5945959
-0.13156348 -0.4530248 2.5949042
-0.10954136 -0.45251432 2.5949807
-0.093605429 -0.45219216 2.5948818
-0.038967941 -0.45108777 2.5945425
0.015669553 -0.44998336 2.5942035
0.020222677 -0.44989136 2.5941753
-0.88338846 -0.46737152 2.6023393
-0.86289936 -0.46695739 2.6022122
-0.84773755 -0.46671629 2.6019051
-0.82877398 -0.46636569 2.6016808
-0.80971825 -0.46562082 2.6027341
-0.6512711 -0.46307203 2.5996208
-0.62924904 -0.46256155 2.5996971
-0.61164057 -0.46219251 2.5996304
-0.59094226 -0.46185261 2.5992463
-0.56931484 -0.46141544 2.599112
-0.55008733 -0.46085864 2.5995405
-0.5316366 -0.46016338 2.6004755
-0.50921202 -0.4595466 2.6008689
-0.49110687 -0.45963839 2.5992658
-0.40767899 -0.45814824 2.598109
-0.38832819 -0.45775712 2.5979888
-0.371254 -0.45741194 2.597883
-0.34384322 -0.45646548 2.5989909
-0.33019042 -0.45621753 2.5988147
-0.31048429 -0.45592204 2.5983577
-0.28816915 -0.4554005 2.5984488
-0.27326977 -0.45503899 2.5985529
-0.20506494 -0.45405272 2.5968516
-0.19368213 -0.45382264 2.5967808
-0.17546964 -0.45345452 2.5966678
-0.13107668 -0.45255718 2.5963924
-0.11172589 -0.45216605 2.5962722
-0.091206156 -0.45162043 2.596571
-0.072158113 -0.45090845 2.5975177
-0.050166685 -0.45052925 2.5971682
-0.028236611 -0.45041305 2.5959671
-0.0092345793 -0.44989818 2.5962749
0.0081730457 -0.44974247 2.5955281
0.031516157 -0.44896552 2.5963771
0.050063413 -0.44824174 2.5973983
0.071109496 -0.44759837 2.5979774
0.091118217 -0.44708487 2.5982084
0.10933072 -0.44671676 2.5980954
0.12788817 -0.44625747 2.5982542
0.15035485 -0.44569126 2.59848
0.16979121 -0.44547287 2.5977912
0.19349119 -0.44532382 2.5965691
0.21008958 -0.44539949 2.5951269
0.22992834 -0.44453558 2.5965114
0.2509428 -0.44411084 2.5963809
0.26719534 -0.44372198 2.5964766
0.28917915 -0.44308141 2.5969791
0.30743766 -0.44251615 2.5975051
0.33703297 -0.44191784 2.5973215
0.35217935 -0.44174254 2.5968015
0.36885878 -0.4414708 2.5964847
0.38934785 -0.44105664 2.5963576
0.40886784 -0.44063395 2.5963278
0.43028 -0.44042543 2.5954647
0.45076904 -0.44001135 2.5953374
0.46899995 -0.43956432 2.5954797
0.48950404 -0.43908572 2.5955617
0.50934714 -0.4387916 2.5950899
0.53054076 -0.4380064 2.5961206
0.54420012 -0.43773034 2.5960357
0.61017448 -0.43659306 2.5949872
0.62160319 -0.43616575 2.5955553
0.13223439 -0.44566506 2.5998704
0.14589377 -0.445389 2.5997858
0.29297808 -0.44233739 2.5991285
0.30985227 -0.44187871 2.599407
0.3286224 -0.44154841 2.5991309
0.34623122 -0.44133946 2.5985425
0.3963156 -0.44032711 2.5982316
0.41099012 -0.43986234 2.5986884
0.42363435 -0.43977487 2.598062
0.49648434 -0.43830234 2.59761
0.51115882 -0.4378376 2.5980666
0.53151923 -0.43734461 2.5982056
0.5504244 -0.43695053 2.5981271
0.56879699 -0.43648401 2.5983229
0.58885241 -0.436261 2.5976045
0.61129665 -0.43566781 2.5979197
0.62866306 -0.43504211 2.5987065
0.6445989 -0.43471995 2.5986075
0.67177969 -0.43475908 2.5965221
0.69208813 -0.43373194 2.5984044
0.71120244 -0.4335342 2.5976715
0.72660118 -0.43286616 2.598738
0.74873072 -0.43189561 2.6003048
0.7756393 -0.43148246 2.5997117
0.78938627 -0.43120462 2.5996263
0.80646491 -0.43046704 2.6007986
0.87703836 -0.42904052 2.6003606
0.89220011 -0.42879942 2.6000535
0.91114074 -0.42854741 2.5995097
0.92596149 -0.42814967 2.5997374
1.2116929 -0.42227602 2.5982838
0.81566322 -0.42988867 2.6020195
0.82941461 -0.42921829 2.6032124
0.85058039 -0.42867833 2.603446
0.86899 -0.42857528 2.6024554
0.88851321 -0.42841613 2.6015675
0.93404448 -0.42749578 2.6012847
0.94998044 -0.42717361 2.601186
0.97520667 -0.42587894 2.6035855
0.99156225 -0.42618603 2.6014071
1.0104012 -0.42555994 2.6020892
-0.58995014 -0.45652461 2.6165283
-0.47065759 -0.45411325 2.615788
-0.45001081 -0.45369592 2.61566
-0.429364 -0.45327857 2.6155317
-0.39724678 -0.45262939 2.6153324
-0.3628355 -0.45193383 2.615119
-0.35365909 -0.45174834 2.615062
-0.26653016 -0.45018491 2.6138773
-0.24848531 -0.4497354 2.6140413
-0.22987114 -0.44964164 2.6130059
-0.21680947 -0.44911399 2.6137834
-0.18619071 -0.44836324 2.6140225
-0.16554393 -0.44794586 2.6138945
-0.1517794 -0.44766763 2.6138091
-0.12654445 -0.44715756 2.6136525
-0.10360356 -0.44669384 2.6135101
0.011100818 -0.44437531 2.6127982
-0.98882467 -0.46332183 2.6231253
-0.97055238 -0.46329519 2.6218956
-0.92470151 -0.46250018 2.6211817
-0.88340789 -0.46166545 2.6209254
-0.86960858 -0.46123824 2.6213229
-0.84901971 -0.46106929 2.6203902
-0.83064383 -0.46059895 2.6205981
-0.81566274 -0.45999953 2.6214709
-0.64489233 -0.45714092 2.6184793
-0.62926006 -0.4566865 2.6188331
-0.61013669 -0.45636773 2.6184936
-0.58896416 -0.45585763 2.6186297
-0.57005411 -0.45541066 2.6187232
-0.55393982 -0.45484766 2.619396
-0.52924556 -0.45404536 2.62023
-0.50965363 -0.4534893 2.6206298
-0.49113747 -0.45381549 2.6182334
-0.47051847 -0.45351729 2.6177189
-0.45141658 -0.45319712 2.6173859
-0.42927125 -0.45288128 2.6168191
-0.4085781 -0.45226529 2.6173346
-0.38956186 -0.45171911 2.6177435
-0.36953226 -0.45127824 2.6177366
-0.35115632 -0.45080802 2.6179442
-0.33091739 -0.45018145 2.6185269
-0.30798581 -0.44975746 2.6182559
-0.28988022 -0.44914106 2.6189592
-0.27084008 -0.44908574 2.6177678
-0.25028604 -0.44906569 2.6163523
-0.23062907 -0.44869667 2.6161382
-0.21031003 -0.44828594 2.6160121
-0.18946955 -0.44773754 2.6162968
-0.16994664 -0.44724402 2.6164975
-0.14925347 -0.446628 2.6170132
-0.12860668 -0.44621071 2.6168849
-0.11072207 -0.44588858 2.6166453
-0.089303039 -0.44534212 2.6168826
-0.06981311 -0.44474551 2.6174216
-0.050561324 -0.44443542 2.6170447
-0.026979404 -0.44448602 2.615181
-0.0093141152 -0.44379938 2.6161447
0.0076971143 -0.44374111 2.615109
0.027620424 -0.44316265 2.6155577
0.051401466 -0.44220492 2.6169639
0.067410432 -0.4418135 2.6170852
0.089470766 -0.4412095 2.6174636
0.11011756 -0.44079214 2.6173353
0.12158799 -0.44056028 2.6172643
0.1559993 -0.43986472 2.6170506
0.16976385 -0.43958649 2.6169653
0.19037353 -0.43932799 2.616322
0.21096468 -0.43914908 2.6154215
0.22801511 -0.43848816 2.6163461
0.25155538 -0.43806502 2.6160283
0.27070367 -0.4375461 2.6163387
0.28217414 -0.43731424 2.6162677
0.35558495 -0.43583038 2.6158121
0.36934945 -0.43555218 2.6157265
0.3877022 -0.4351812 2.6156127
0.43587798 -0.43420741 2.6153138
0.44964254 -0.43392918 2.6152282
0.47028932 -0.43351185 2.6151001
0.48864204 -0.43314087 2.6149862
0.66528678 -0.42957026 2.6138899
-0.14213935 -0.44549564 2.620189
0.091857597 -0.4407658 2.6187367
0.1102103 -0.44039485 2.6186228
0.12859394 -0.43989146 2.618938
0.14726992 -0.4395327 2.6187608
0.16297431 -0.43932831 2.6182952
0.1859152 -0.43886453 2.6181529
0.21115017 -0.43835446 2.6179962
0.29144323 -0.43673149 2.6174979
0.30988866 -0.43596321 2.6186714
0.33189338 -0.43559754 2.6182773
0.34879541 -0.43557221 2.617142
0.36944219 -0.43515486 2.6170139
0.39008901 -0.43473753 2.6168859
0.41087487 -0.43372425 2.6186886
0.42915341 -0.43367109 2.6175449
0.4483774 -0.43348023 2.6167817
0.47038206 -0.43311456 2.6163874
0.49258918 -0.43253386 2.616679
0.50929952 -0.43178868 2.6179023
0.53019071 -0.43121353 2.6182702
0.55090702 -0.43049821 2.6191075
0.56813586 -0.43005112 2.6193225
0.58981371 -0.43010724 2.6175783
0.61002022 -0.42961973 2.6177104
0.62895232 -0.42872301 2.6192672
0.65160036 -0.42862466 2.6179557
0.67095959 -0.42874381 2.616173
0.68691468 -0.42821047 2.616761
0.71021348 -0.4273001 2.6180472
0.73079127 -0.42674357 2.6183774
0.74887645 -0.42605174 2.6193278
0.77147156 -0.42571038 2.6188118
0.78963125 -0.4250797 2.6195579
0.80658889 -0.42481598 2.619195
0.88598287 -0.42313212 2.6189599
0.90892375 -0.42266837 2.6188176
0.92727649 -0.42229739 2.6187036
0.75271738 -0.42531744 2.6214428
0.7720812 -0.42467955 2.6221256
0.78981674 -0.42428511 2.6221325
0.81041199 -0.42408845 2.6212893
0.8311103 -0.42345044 2.6218762
0.8485328 -0.42287225 2.6225042
0.86937594 -0.42254516 2.6220682
0.8906638 -0.42264211 2.6202188
0.90901655 -0.42227107 2.6201048
0.93351853 -0.4213444 2.6213579
0.95044917 -0.42084041 2.6217797
0.96894568 -0.42050603 2.6215363
0.99177057 -0.41988659 2.6219096
1.011013 -0.41961628 2.6214037
-0.6687907 -0.45214611 2.6364689
-0.65954065 -0.45195919 2.6364114
-1.0014619 -0.45747545 2.6430771
-0.98989946 -0.45724171 2.6430054
-0.96923661 -0.45746186 2.6408
-0.94779259 -0.45702475 2.6406786
-0.92848074 -0.45639887 2.641326
-0.91153187 -0.45609611 2.6410913
-0.89197195 -0.45553634 2.6415052
-0.86875302 -0.45491254 2.6418641
-0.85031849 -0.4548189 2.640841
-0.83143735 -0.4541766 2.6415727
-0.81646276 -0.45373601 2.6419291
-0.66869718 -0.45174563 2.6377666
-0.64899421 -0.45114809 2.6382933
-0.62771845 -0.45038587 2.6392431
-0.61076796 -0.45007646 2.6390297
-0.58988553 -0.44935539 2.6398737
-0.56905448 -0.44885466 2.6400042
-0.55030584 -0.44851106 2.6397724
-0.53085858 -0.44791314 2.6403189
-0.50752348 -0.44753119 2.6398818
-0.4900234 -0.44749629 2.6387348
-0.46796015 -0.44713998 2.6383057
-0.44891715 -0.44690454 2.6377006
-0.43187955 -0.44687903 2.6365564
-0.40759602 -0.4459554 2.6378155
-0.38865218 -0.44508848 2.6392741
-0.37015229 -0.44471452 2.6391592
-0.34831724 -0.44429532 2.6389515
-0.329943 -0.44402137 2.6385202
-0.3095744 -0.44352996 2.6386535
-0.2914809 -0.44292507 2.6393201
-0.26822227 -0.44278106 2.6381135
-0.24999632 -0.44268441 2.6371152
-0.23186015 -0.44246009 2.6365392
-0.20984735 -0.44189095 2.636807
-0.19073114 -0.44120744 2.6376562
-0.17127818 -0.4406946 2.6379249
-0.15504403 -0.44016713 2.6384735
-0.12960663 -0.43965301 2.6383154
-0.10973792 -0.43933108 2.6379325
-0.091851547 -0.43895626 2.6378648
-0.069481909 -0.43843767 2.6379423
-0.050981987 -0.43806374 2.6378276
-0.031650849 -0.43818885 2.6360276
-0.0094039263 -0.43742254 2.6369205
0.01010038 -0.43722764 2.6361501
0.029054744 -0.43669954 2.6365047
0.049361348 -0.43611521 2.6369452
0.068786271 -0.43572253 2.6368246
0.080829911 -0.43539935 2.6370096
0.17332947 -0.43352959 2.6364357
0.19640763 -0.43326244 2.635643
0.20659193 -0.43301669 2.6357098
0.23114172 -0.43236104 2.6360767
0.24861051 -0.43217871 2.635412
0.27045402 -0.43156645 2.6358328
0.28432897 -0.43128595 2.6357465
-0.81627578 -0.45293501 2.6445243
-0.54576129 -0.44766638 2.6421964
-0.5295738 -0.44733915 2.642096
-0.51569885 -0.44705871 2.64201
-0.20120031 -0.4407016 2.640058
-0.18614577 -0.44029763 2.6402893
-0.17010681 -0.43990216 2.6404216
-0.15027881 -0.43947297 2.6403911
-0.1294664 -0.43905225 2.6402621
-0.11238202 -0.43882653 2.6397665
-0.090673171 -0.43829024 2.6399491
-0.069341682 -0.43783695 2.639889
-0.052399002 -0.43756092 2.6395674
-0.0092636934 -0.43682188 2.6388669
0.037788086 -0.43573785 2.6390078
0.051663019 -0.43545747 2.6389215
0.069407694 -0.43503231 2.6390278
0.090266839 -0.43441132 2.6395476
0.11157914 -0.43382111 2.6399348
0.12910305 -0.43338102 2.6401055
0.15147325 -0.4331128 2.6393676
0.17120396 -0.43277532 2.6390452
0.18813889 -0.43227971 2.6394396
0.21219222 -0.43219602 2.6379793
0.23123521 -0.43196058 2.6373744
0.25204766 -0.43153986 2.6372454
0.27054751 -0.43116593 2.6371303
0.29293275 -0.43058056 2.6374242
0.30844286 -0.42986846 2.6386261
0.3215158 -0.429737 2.6381123
0.34454718 -0.42967018 2.6366711
0.3653596 -0.42924947 2.6365418
0.38951561 -0.42859027 2.6369486
0.40775105 -0.42781278 2.6381671
0.43027288 -0.42723978 2.638411
0.45021319 -0.42726853 2.6368809
0.46789551 -0.42711037 2.636122
0.48929644 -0.42651644 2.6365149
0.50892091 -0.4255504 2.6382475
0.53152609 -0.42484435 2.6389186
0.55063921 -0.42430851 2.6392868
0.56220168 -0.42407483 2.6392152
0.59093773 -0.42367116 2.6384597
0.61071712 -0.42329344 2.6382649
0.62463886 -0.42281273 2.6388276
0.65467006 -0.42233852 2.6382086
0.67081392 -0.42219827 2.6375024
0.68906933 -0.42177612 2.6375623
0.70819223 -0.42123768 2.6379383
0.72870094 -0.42070925 2.6381819
0.57154518 -0.42348728 2.6404555
0.58079505 -0.42330033 2.640398
0.61779487 -0.42255247 2.6401684
0.63038844 -0.42212701 2.6406467
0.64918351 -0.42174083 2.6405506
0.67098212 -0.42147741 2.6398382
0.68948209 -0.42110342 2.6397235
0.71230328 -0.42052814 2.6399529
0.73120034 -0.41986161 2.6407628
0.74896061 -0.4193697 2.6410854
0.76893014 -0.41845116 2.6426382
0.79151207 -0.41784525 2.6429851
0.81044638 -0.41758206 2.642478
0.82877553 -0.41737667 2.6418266
0.85394925 -0.41658309 2.6425977
0.87093866 -0.41610691 2.6429248
0.88797677 -0.41624412 2.6412504
0.91549098 -0.41587064 2.6404846
0.9307161 -0.41536868 2.6410227
0.9708001 -0.41392225 2.6428461
1.0018084 -0.41419235 2.6397326
-0.98490673 -0.45137748 2.6617458
-0.96958518 -0.45130864 2.6608663
-0.95089787 -0.4507302 2.6614041
-0.93190479 -0.45026025 2.6615665
-0.91032743 -0.44978961 2.6615446
-0.89027047 -0.4493039 2.6616819
-0.86733013 -0.44895497 2.6611657
-0.84974706 -0.44856513 2.6611688
-0.83202016 -0.44812649 2.6613202
-0.67148459 -0.44588551 2.6570537
-0.64931226 -0.44489673 2.6586771
-0.63016915 -0.44440332 2.6589048
-0.61071575 -0.443854 2.6592929
-0.59126759 -0.4433268 2.6596084
-0.56872839 -0.44280446 2.6596863
-0.55712539 -0.44277072 2.6589603
-0.5081951 -0.44178167 2.6586566
-0.48808011 -0.44170964 2.6574419
-0.47237885 -0.44133881 2.6575186
-0.44942114 -0.44084468 2.6574743
-0.43015486 -0.44097877 2.6556494
-0.40938303 -0.43998513 2.6573892
-0.39164728 -0.43922505 2.6585872
-0.36913949 -0.43883687 2.6582298
-0.34970698 -0.43837729 2.6583271
-0.33010864 -0.43815327 2.6576447
-0.31212083 -0.43773225 2.6577201
-0.2891266 -0.43715277 2.6579511
-0.27514654 -0.43687016 2.6578643
-0.24956346 -0.43655387 2.6570516
-0.22864041 -0.43633175 2.6562676
-0.21228319 -0.43580022 2.6568203
-0.19825603 -0.43531594 2.657387
-0.030494949 -0.43192494 2.6563458
-0.0095248148 -0.43150106 2.6562159
0.0091153048 -0.43112427 2.6561
0.02542541 -0.43079463 2.6559989
0.24444681 -0.42636743 2.6546397
0.3539575 -0.42415383 2.65396
0.37182099 -0.42379281 2.6538491
-0.94842666 -0.4500778 2.6633508
-0.93444657 -0.44979525 2.663264
-0.90648639 -0.44923002 2.6630905
-0.88875937 -0.44879141 2.6632421
-0.87074381 -0.44844049 2.6630869
-0.84642953 -0.44776511 2.6635354
-0.83012861 -0.44724837 2.6640439
-0.58960438 -0.44282478 2.661124
-0.56863415 -0.4424009 2.6609938
-0.54999405 -0.44202411 2.6608782
-0.53135395 -0.44164735 2.6607625
-0.51504385 -0.44131768 2.6606612
-0.38689303 -0.43872729 2.6598659
-0.37058294 -0.43839762 2.6597648
-0.32631266 -0.43750277 2.6594899
-0.30844921 -0.43714169 2.659379
-0.29136243 -0.43679628 2.6592729
-0.20515189 -0.43505368 2.6587379
-0.19350182 -0.43481824 2.6586657
-0.17167649 -0.43404225 2.6596205
-0.14755258 -0.43335378 2.6601248
-0.13012397 -0.43296334 2.660141
-0.10879749 -0.43290514 2.6587942
-0.087811649 -0.43241408 2.6588819
-0.071295977 -0.43186611 2.659477
-0.049754754 -0.43164471 2.6586459
-0.030400755 -0.43152139 2.6576536
-0.0093552647 -0.43077472 2.6585693
0.0092565967 -0.43051898 2.6580615
0.03261954 -0.42977887 2.6587887
0.050978389 -0.42918798 2.6593909
0.069334254 -0.42873853 2.6595321
0.090035237 -0.42820337 2.6597838
0.10765865 -0.42764062 2.6603472
0.13203204 -0.42711353 2.6603081
0.1492302 -0.42695323 2.6595912
0.17021601 -0.42646217 2.6596787
0.19414826 -0.42612186 2.6590629
0.20908657 -0.42599204 2.6584096
0.22830155 -0.42599091 2.6570289
0.24924813 -0.42566791 2.6565719
0.27021828 -0.42524403 2.6564419
0.28895259 -0.42446369 2.6576335
0.30958936 -0.42381215 2.6582689
0.33082223 -0.42391863 2.6563928
0.34976494 -0.42366484 2.6558547
0.37111497 -0.42303252 2.6563764
0.39149681 -0.42229044 2.6573246
0.40787083 -0.42168707 2.6581104
0.42884767 -0.42123434 2.6580737
0.4490512 -0.4212563 2.6565466
0.47160488 -0.42114463 2.6552854
0.48786992 -0.42072409 2.6554835
0.51114345 -0.41970468 2.6571269
0.5314154 -0.4189603 2.6580911
0.5500555 -0.41858351 2.6579754
0.56403565 -0.4183009 2.6578887
0.59432584 -0.41768867 2.6577005
0.61015105 -0.41744912 2.6573408
0.13307709 -0.42661047 2.6618712
0.17815541 -0.42556533 2.6620276
0.18904452 -0.42527825 2.6621783
0.39170873 -0.42138261 2.6602662
0.41267887 -0.42095876 2.660136
0.42432895 -0.42072326 2.6600637
0.51985955 -0.41879228 2.6594708
0.52684951 -0.41865093 2.6594274
0.55014974 -0.41817999 2.6592829
0.57059622 -0.4175157 2.6599736
0.58795255 -0.41717491 2.6598332
0.61073011 -0.41695544 2.6589069
0.62946445 -0.41617513 2.6600988
0.6504817 -0.41554949 2.6606224
0.67131054 -0.41573092 2.658531
0.68995059 -0.41535416 2.6584153
0.70859075 -0.41497737 2.6582997
0.72772521 -0.41390213 2.6604233
0.75076646 -0.41312078 2.6613081
0.76398563 -0.41278663 2.6614439
0.79042393 -0.41211835 2.661716
0.81139398 -0.41169444 2.6615858
0.83141327 -0.41137016 2.6612
0.84763539 -0.41113409 2.6608002
0.86265439 -0.41065833 2.6612678
0.89636892 -0.41027808 2.6600773
0.90932512 -0.41017839 2.6594687
0.92085761 -0.40968266 2.6602526
0.79983813 -0.41152641 2.6629658
0.81162953 -0.41068566 2.6648545
0.82721341 -0.41062883 2.6639171
0.84850287 -0.41025588 2.6635981
0.87045819 -0.40986946 2.663275
0.88975054 -0.4095369 2.6629682
-0.68388951 -0.43994462 2.6772971
-0.6704157 -0.43944094 2.6779668
-0.62743258 -0.43839863 2.6782651
-0.50531501 -0.43593019 2.6775074
-0.48887599 -0.4355979 2.6774054
-0.47243708 -0.43526563 2.6773033
-0.45130134 -0.43483841 2.6771722
-0.43021309 -0.43461451 2.6763821
-0.41607508 -0.43412635 2.6769536
-0.26812482 -0.43113577 2.6760352
-0.22350492 -0.43023387 2.6757584
-0.98837686 -0.44448006 2.6844606
-0.97015899 -0.44471908 2.6823697
-0.94665897 -0.44417661 2.6824436
-0.92793494 -0.44406796 2.6814485
-0.90670425 -0.44323406 2.6826353
-0.89222413 -0.44271007 2.6832988
-0.86770153 -0.44236466 2.6826568
-0.8493855 -0.44133329 2.6846967
-0.83681315 -0.44087675 2.6852777
-0.66566342 -0.43863168 2.6802604
-0.64719635 -0.43795481 2.6811345
-0.63011855 -0.43758097 2.6811216
-0.61143571 -0.43722883 2.6809227
-0.58962059 -0.43662232 2.6813266
-0.56780547 -0.4360157 2.6817307
-0.55008173 -0.43545872 2.6822679
-0.5301646 -0.43510243 2.6819935
-0.51292151 -0.43513945 2.6806309
-0.48878106 -0.43519118 2.6787231
-0.46999374 -0.43481144 2.6786065
-0.45120639 -0.4344317 2.6784899
-0.4222109 -0.4337106 2.6787493
-0.40791956 -0.43323287 2.679276
-0.39082488 -0.43276134 2.67958
-0.36987522 -0.43246388 2.67904
-0.34981588 -0.43175259 2.6799116
-0.32957387 -0.43131059 2.6798928
-0.31138065 -0.43120053 2.6789405
-0.29060468 -0.43064561 2.6792512
-0.27344626 -0.43056872 2.6782656
-0.24924256 -0.43034929 2.6772366
-0.23045522 -0.42996955 2.67712
-0.2120806 -0.4293552 2.6777968
-0.18962274 -0.42860442 2.6786244
-0.16738588 -0.42763203 2.6801894
-0.15109649 -0.42710605 2.6807292
-0.13310252 -0.42678732 2.6804709
-0.11101797 -0.42674574 2.6790156
-0.088367447 -0.42634577 2.6786866
-0.069512308 -0.42567539 2.6795113
-0.051738203 -0.42534503 2.6793067
-0.02983048 -0.42525178 2.6780324
-0.010191494 -0.4242579 2.6798546
0.009320626 -0.42411086 2.6789279
0.027862849 -0.42366859 2.6790326
0.051734533 -0.4226464 2.6806424
0.074020758 -0.42229709 2.6801744
0.088262051 -0.42208147 2.6798506
0.11044496 -0.42145965 2.6802781
0.12453546 -0.42117482 2.6801906
0.15033638 -0.4207882 2.6795909
0.16680697 -0.42032039 2.6799281
0.19968478 -0.4196558 2.6797242
0.21142688 -0.41941842 2.6796513
0.2307684 -0.41939536 2.6783328
0.24953845 -0.41908965 2.6779766
0.27004233 -0.41863832 2.6779692
0.28984499 -0.4179143 2.678901
0.31006035 -0.41742477 2.6790392
0.32971114 -0.41735134 2.6778624
0.35018268 -0.41709939 2.6772082
0.37027311 -0.41647747 2.6777866
0.3851622 -0.41610903 2.6779139
0.40399703 -0.41552594 2.6784561
0.43682742 -0.41506469 2.6775932
0.45168492 -0.41483188 2.6772811
0.46900865 -0.41465336 2.6766145
0.48839763 -0.41442707 2.6759546
0.50819087 -0.41374362 2.6767547
0.53785682 -0.41282019 2.6776254
0.54255366 -0.41272524 2.6775963
0.044784226 -0.42238209 2.682004
0.094100975 -0.42138523 2.6816978
0.11053989 -0.42105293 2.6815958
0.13167565 -0.42062569 2.6814647
0.15046297 -0.42024595 2.6813481
0.16925031 -0.4198662 2.6812315
0.18946889 -0.41891772 2.682864
0.2115218 -0.41901171 2.680969
0.27023223 -0.41782495 2.6806047
0.29136798 -0.4173978 2.6804736
0.3101553 -0.41701806 2.680357
0.37361002 -0.41553295 2.6806223
0.38903573 -0.41525009 2.6804326
0.40878877 -0.41502434 2.679745
0.42894411 -0.41434699 2.6804986
0.44641095 -0.41406137 2.6801705
0.46749923 -0.41383761 2.6793804
0.51681596 -0.41284072 2.6790745
0.53195369 -0.4123612 2.6795454
0.54974133 -0.41197276 2.6795292
0.56857604 -0.41138965 2.6800716
0.59177172 -0.4104822 2.681356
0.61032033 -0.41048357 2.6800153
0.62907207 -0.40983552 2.6807752
0.64856464 -0.40916562 2.6815529
0.66958654 -0.40922648 2.6798403
0.69064629 -0.40912458 2.6786549
0.70943356 -0.40874478 2.6785381
0.72711796 -0.40808377 2.6794174
0.74245387 -0.4074702 2.680311
0.77617782 -0.40651864 2.6809807
0.78808916 -0.40622389 2.6810825
0.80125922 -0.40587676 2.6812644
0.84822756 -0.4049274 2.6809728
0.65340394 -0.40846062 2.6835005
0.66279757 -0.40827075 2.6834421
0.77552158 -0.40599218 2.6827426
0.79151249 -0.40535405 2.6836689
0.8037501 -0.40521917 2.6832266
-0.68616247 -0.43385729 2.6972873
-0.44310525 -0.42867228 2.6966648
-0.43600482 -0.42852879 2.6966207
-0.98582041 -0.4383601 2.7042093
-0.97071445 -0.43852121 2.7025967
-0.94942272 -0.43813151 2.7023315
-0.92715204 -0.43787363 2.7015672
-0.90912926 -0.43707231 2.702879
-0.88860095 -0.43658939 2.7029729
-0.87244362 -0.43633077 2.7026513
-0.84744847 -0.43521357 2.7044892
-0.66946596 -0.43249008 2.7005374
-0.64948851 -0.4314841 2.7023747
-0.629749 -0.4310171 2.7024736
-0.61086237 -0.43083933 2.7016921
-0.58956093 -0.43040878 2.70156
-0.56816387 -0.42956829 2.7027559
-0.5444957 -0.42908987 2.7026091
-0.53029484 -0.42880282 2.7025208
-0.51044106 -0.4290691 2.7002234
-0.49062917 -0.42887974 2.6994128
-0.4704456 -0.42873535 2.6984289
-0.44905469 -0.42820966 2.6986001
-0.43084729 -0.42753443 2.6994877
-0.41084227 -0.4266943 2.700783
-0.38601458 -0.42629445 2.7002966
-0.36944684 -0.42595947 2.7001939
-0.34693813 -0.42540252 2.7003863
-0.33151397 -0.42492077 2.7008443
-0.31064695 -0.424669 2.7001612
-0.28892717 -0.42412791 2.7003586
-0.26946455 -0.42423525 2.698607
-0.25124943 -0.4241823 2.6974673
-0.22799404 -0.42345375 2.6981647
-0.20850322 -0.42270634 2.6991951
-0.19049624 -0.42226076 2.6993492
-0.17411254 -0.42170516 2.6999781
-0.15397067 -0.42119604 2.7001853
-0.12793568 -0.42066979 2.7000239
-0.1100565 -0.42048314 2.6993437
-0.091121957 -0.42010042 2.6992261
-0.071132042 -0.41952157 2.6996713
-0.048268739 -0.41912743 2.6993079
-0.029584667 -0.41885659 2.6988442
-0.0024943014 -0.41813421 2.6992452
0.0093397908 -0.41789502 2.6991718
0.025907522 -0.4175601 2.699069
0.06377662 -0.41679463 2.6988339
0.24365482 -0.41315868 2.6977177
0.34779483 -0.41105366 2.6970713
0.48980391 -0.40818322 2.6961901
0.5040049 -0.40789616 2.6961019
-0.84832621 -0.43464848 2.706393
-0.5609678 -0.42901489 2.7040401
-0.54913366 -0.42877567 2.7039666
-0.53019917 -0.42839292 2.7038491
-0.51836503 -0.42815372 2.7037756
-0.38108957 -0.42537892 2.7029238
-0.36925548 -0.42513973 2.7028503
-0.35129428 -0.42460173 2.7033083
-0.33138639 -0.42437425 2.7026153
-0.28168321 -0.42336959 2.7023067
-0.27694955 -0.42327389 2.7022774
-0.20831183 -0.4218865 2.7018514
-0.16570909 -0.42102534 2.701587
-0.15150818 -0.42073828 2.701499
-0.13020681 -0.42030773 2.7013667
-0.10890544 -0.41987714 2.7012346
-0.088361122 -0.41932589 2.7015498
-0.070988514 -0.41890672 2.7016635
-0.053502761 -0.41867569 2.7011564
-0.0086782416 -0.41771522 2.7010553
0.0094354739 -0.41748509 2.7005
0.028370019 -0.41710234 2.7003825
0.048359927 -0.41652343 2.7008281
0.068605937 -0.41628903 2.7001328
0.097103439 -0.41530508 2.7012846
0.11037676 -0.41495517 2.701468
0.13028674 -0.41443029 2.7017431
0.15051225 -0.41428372 2.7007637
0.17230971 -0.4135299 2.7016485
0.18960072 -0.41261941 2.7033682
0.20839174 -0.41285154 2.7012584
0.22956873 -0.41295382 2.6993997
0.25246075 -0.41243672 2.6994348
0.26991308 -0.41167599 2.7006552
0.28884763 -0.4112933 2.7005377
0.31011713 -0.4109993 2.6999626
0.33132279 -0.41097865 2.6985023
0.35025734 -0.41059592 2.6983848
0.36690161 -0.40993309 2.6993446
0.38595095 -0.40905848 2.7008209
0.41111732 -0.40888977 2.6995573
0.43328735 -0.40810165 2.7005272
0.45128474 -0.40769708 2.7005482
0.46774715 -0.4078131 2.6989844
0.49082121 -0.40749499 2.6983581
0.51132059 -0.40683031 2.6990461
0.529719 -0.40586099 2.7008779
0.54999393 -0.40537173 2.7010107
0.56765491 -0.40494061 2.7011428
0.58763278 -0.40428236 2.7018473
0.61253607 -0.40379849 2.7016292
0.62831485 -0.40347958 2.7015314
0.64649236 -0.4029761 2.7018614
0.67716533 -0.40276408 2.7003422
0.69134712 -0.40255901 2.6999886
0.70933497 -0.40219545 2.699877
0.72859859 -0.40168735 2.7001438
0.74821776 -0.40112388 2.7005658
0.76715231 -0.40074116 2.7004483
0.53298074 -0.40486264 2.7038946
0.59451813 -0.40361875 2.7035127
0.61108583 -0.40328386 2.7034099
0.63080931 -0.4028852 2.7032876
0.64895487 -0.40251842 2.7031748
0.66793728 -0.40193075 2.7037215
0.73291248 -0.40008697 2.7050457
0.74924588 -0.40008318 2.7038813
0.76969856 -0.39992478 2.7029238
0.78623039 -0.39974362 2.702323
0.80999422 -0.3988553 2.7035043
-0.69341868 -0.42759565 2.7182043
-0.98290896 -0.43199411 2.7247338
-0.96973091 -0.43177271 2.7245057
-0.94881505 -0.43142152 2.7241426
-0.93256634 -0.43133301 2.7232604
-0.91187084 -0.43084612 2.7233553
-0.88794953 -0.43010554 2.7240438
-0.87191314 -0.42971528 2.7241597
-0.68530422 -0.42674616 2.7203865
-0.66848892 -0.42592654 2.7218447
-0.64977139 -0.42509574 2.7232022
-0.62875444 -0.42458871 2.7233396
-0.61112618 -0.42435578 2.7228281
-0.58965135 -0.42392173 2.7226949
-0.57290041 -0.42337739 2.7232609
-0.511397 -0.42238098 2.7220755
-0.49333987 -0.42234507 2.7208917
-0.46947357 -0.42229223 2.7193441
-0.44998381 -0.42148045 2.7205844
-0.43138966 -0.42079118 2.7214897
-0.41064584 -0.42009765 2.7222538
-0.3949362 -0.4199447 2.7216206
-0.32236028 -0.41831312 2.7217059
-0.31042978 -0.41807199 2.721632
-0.29372716 -0.41773421 2.7215285
-0.2679036 -0.4175649 2.7202199
-0.24755259 -0.41729462 2.7196341
-0.23174375 -0.41671649 2.7203782
-0.19112498 -0.41566041 2.7208915
-0.17680837 -0.415371 2.7208028
-0.040800888 -0.41262186 2.7199585
-0.028870406 -0.4123807 2.7198846
0.072141021 -0.41033879 2.7192578
0.085662231 -0.41006559 2.7191737
-0.97116822 -0.43053049 2.7286551
-0.95457941 -0.4306812 2.7269692
-0.86816406 -0.42876992 2.7269688
-0.85191298 -0.42833158 2.7272253
-0.62529808 -0.42402527 2.7249258
-0.61813974 -0.42388058 2.7248812
-0.56321132 -0.42256463 2.7252102
-0.55011195 -0.42240268 2.7247939
-0.52985424 -0.42209604 2.7243333
-0.41054937 -0.41968447 2.723593
-0.38430232 -0.41915393 2.7234299
-0.37099266 -0.41865647 2.7240913
-0.34685585 -0.41812283 2.7240906
-0.33414605 -0.41793448 2.7237885
-0.2888585 -0.41722459 2.7228379
-0.27931407 -0.41703176 2.7227783
-0.22681996 -0.41597056 2.7224529
-0.21006905 -0.41542652 2.7230182
-0.19341461 -0.41529536 2.7222455
-0.16716753 -0.41476494 2.7220824
-0.14936151 -0.41422224 2.7225671
-0.12792605 -0.41379544 2.7224131
-0.10975654 -0.41298753 2.7237353
-0.09132883 -0.41252688 2.7239082
-0.071530759 -0.41200921 2.7241681
-0.049463715 -0.41194502 2.7227871
-0.024732804 -0.41161168 2.7220914
-0.010046634 -0.41109544 2.7227147
0.0094518345 -0.4109892 2.7216558
0.030423256 -0.41045111 2.7218978
0.050073355 -0.40992129 2.7222075
0.071490332 -0.4097352 2.7212708
0.090603225 -0.40924606 2.721487
0.10981259 -0.4083437 2.7230425
0.1289496 -0.4077512 2.7235935
0.15149236 -0.40743786 2.72299
0.17009768 -0.40697089 2.7231705
0.19103633 -0.4062905 2.7238781
0.21002863 -0.40631789 2.7224207
0.22976808 -0.40653583 2.7202888
0.24704577 -0.40615726 2.7202773
0.27032143 -0.40527543 2.7214723
0.29112378 -0.40481579 2.7214708
0.31053042 -0.40452144 2.7210314
0.32971424 -0.40430996 2.7203381
0.34810013 -0.40397578 2.7201023
0.36906961 -0.40324029 2.7209871
0.391372 -0.40265232 2.7212954
0.41041249 -0.40247318 2.7205071
0.42913014 -0.40164235 2.7218647
0.44873476 -0.40108153 2.7222788
0.46945897 -0.40095639 2.7211933
0.49149159 -0.40103981 2.7193344
0.51072502 -0.40003419 2.7212241
0.52270371 -0.39958638 2.7218196
0.5465647 -0.39910406 2.7216716
0.6968888 -0.3960655 2.7207386
0.71836364 -0.3956314 2.7206054
0.72313583 -0.39553496 2.7205758
-0.10474318 -0.41185799 2.7270534
-0.09281271 -0.41161665 2.7269795
0.13386647 -0.40703484 2.7255726
0.14341086 -0.40684193 2.7255132
0.1792023 -0.40611845 2.7252913
0.1911328 -0.40587732 2.7252171
0.51564193 -0.39931789 2.7232032
0.53000671 -0.39882183 2.7237837
0.54909551 -0.39843604 2.723665
0.56672364 -0.39820302 2.7231541
0.58483869 -0.39791906 2.722774
0.61123043 -0.39676884 2.7246192
0.63056827 -0.39644644 2.7242758
0.64945626 -0.3957904 2.7250519
0.66778177 -0.39528298 2.7253845
0.69111651 -0.39535967 2.7234538
0.7121076 -0.39481777 2.7237062
0.7292394 -0.39443085 2.7237325
0.74959522 -0.39409536 2.7233584
0.76312923 -0.39376676 2.7234535
0.64249086 -0.39510861 2.7277741
-0.94613791 -0.42503393 2.7447538
-0.92856956 -0.42495522 2.7437449
-0.91010278 -0.42444384 2.7440801
-0.89363152 -0.42393816 2.7445407
-0.70454955 -0.42057776 2.7418635
-0.68883467 -0.4202278 2.7418711
-0.669653 -0.41958347 2.7425878
-0.64955074 -0.41890082 2.7433634
-0.63752818 -0.41865781 2.7432888
-0.61107874 -0.41812319 2.7431245
-0.59184277 -0.41773432 2.743005
-0.57741576 -0.41744271 2.7429156
-0.55577523 -0.41700527 2.7427812
-0.52211231 -0.41632485 2.7425723
-0.51013839 -0.41629004 2.7418232
-0.48856041 -0.41612032 2.7408214
-0.47176364 -0.41592887 2.7402349
-0.44823471 -0.41509056 2.7412698
-0.42833683 -0.41442934 2.7419903
-0.40429184 -0.41394329 2.7418411
-0.39467385 -0.41374886 2.7417815
-0.3273479 -0.412388 2.7413635
-0.31051642 -0.41204774 2.7412591
-0.26806936 -0.4113279 2.7405457
-0.25203937 -0.41100386 2.7404463
-0.23838148 -0.41058967 2.7408116
-0.18307801 -0.40947181 2.7404683
-0.17586452 -0.40932596 2.7404234
-0.036403622 -0.40650702 2.739558
-0.96865559 -0.42425838 2.7489023
-0.95283306 -0.42432666 2.74754
-0.92834288 -0.42398354 2.7468934
-0.9090907 -0.42352536 2.7469985
-0.88985467 -0.42313656 2.7468793
-0.86955005 -0.42227018 2.7482381
-0.85564286 -0.42215484 2.747612
-0.70353037 -0.41947386 2.7453856
-0.6893487 -0.41920787 2.7452302
-0.66868943 -0.41887319 2.744832
-0.64945346 -0.41848433 2.7447126
-0.62914532 -0.41789621 2.7451651
-0.61255211 -0.4176003 2.7449336
-0.59331614 -0.4172115 2.7448142
-0.57144076 -0.41645157 2.745713
-0.54841596 -0.41623491 2.7447603
-0.53158444 -0.41589466 2.7446561
-0.44266662 -0.41430452 2.7434292
-0.42823967 -0.41401291 2.7433398
-0.40900365 -0.41362405 2.7432203
-0.38974336 -0.41313118 2.7434382
-0.37043446 -0.41242996 2.7443309
-0.35114986 -0.41183302 2.7448859
-0.33342469 -0.41176474 2.7438312
-0.31041923 -0.41163132 2.7426085
-0.28877875 -0.41119391 2.7424741
-0.22960864 -0.409915 2.742377
-0.21173759 -0.40922216 2.743346
-0.19196123 -0.40908152 2.7423792
-0.16748168 -0.40856445 2.7422998
-0.14814848 -0.40775919 2.7435298
-0.12970418 -0.40730029 2.7436957
-0.11536324 -0.40644521 2.7454476
-0.084104761 -0.40581334 2.7452536
-0.069697216 -0.40560502 2.7448943
-0.048085894 -0.40529257 2.744355
-0.029732408 -0.40526703 2.7431161
-0.0096139191 -0.40451494 2.7441163
0.0095734652 -0.40433434 2.7433221
0.026349407 -0.404232 2.7424469
0.048021134 -0.40366071 2.7427464
0.070990488 -0.40338889 2.741977
0.090679474 -0.40265718 2.7429416
0.10919746 -0.40198895 2.743784
0.12508659 -0.40158486 2.7439554
0.15394056 -0.40100163 2.7437763
0.16836755 -0.40071002 2.7436869
0.21159992 -0.40004343 2.7427433
0.23098968 -0.4001351 2.7410481
0.25067025 -0.39949861 2.7417033
0.26849017 -0.39896259 2.7421653
0.28854388 -0.39848816 2.7422657
0.3101711 -0.3981075 2.7419474
0.33207583 -0.3976773 2.7417707
0.35131177 -0.39728844 2.7416513
0.36996028 -0.39681277 2.7418571
0.39115202 -0.39634499 2.7418542
0.40876877 -0.39605802 2.7415197
0.42641792 -0.39563212 2.7416353
0.44969386 -0.39502349 2.741941
0.47275761 -0.39464018 2.7415278
0.49042448 -0.39482194 2.7396629
0.50541985 -0.39414579 2.7407851
-0.10324354 -0.40578574 2.7467225
-0.096030056 -0.40563992 2.7466776
0.0097678741 -0.40350136 2.746021
0.098734312 -0.40170306 2.7454689
0.11075681 -0.40146008 2.7453942
0.13004139 -0.40086308 2.7459493
0.14927737 -0.40047428 2.7458298
0.16856198 -0.39987722 2.7463851
0.19020246 -0.39943984 2.7462509
0.27185819 -0.39820364 2.7443945
0.28628519 -0.39791203 2.7443049
0.33918414 -0.39684275 2.7439766
0.3522788 -0.39640048 2.7444739
0.37024027 -0.39593881 2.7446835
0.38868979 -0.39566445 2.7442479
0.4089146 -0.39543328 2.7435439
0.43060368 -0.39478764 2.7440841
0.44661745 -0.39453304 2.7437599
0.46421805 -0.39431542 2.7432005
0.5133087 -0.39315736 2.7434359
0.52923673 -0.39258683 2.7441468
0.54748392 -0.39204025 2.7446122
0.57005483 -0.39201033 2.7430837
0.5952875 -0.39156246 2.7427247
0.61108691 -0.39051783 2.7449887
0.63037145 -0.38992083 2.745544
0.64842957 -0.38945207 2.7457697
0.66167849 -0.3890807 2.7460248
0.69143599 -0.3887279 2.7450304
0.70487618 -0.38856274 2.7445998
0.61849481 -0.38953912 2.7476428
-0.50487781 -0.40982711 2.7624941
-0.49113816 -0.40954936 2.7624087
-0.47093272 -0.40914097 2.7622833
-0.45880947 -0.40889588 2.762208
-0.96512073 -0.41724944 2.7714758
-0.94972277 -0.41774416 2.7687552
-0.93030381 -0.41696364 2.7698984
-0.9124977 -0.41643274 2.770345
-0.89112663 -0.41614848 2.769731
-0.86731011 -0.41520268 2.7710958
-0.70649475 -0.41252914 2.768218
-0.68880832 -0.41208228 2.7683992
-0.67074323 -0.41182956 2.7679212
-0.6492874 -0.41163161 2.7670202
-0.62991536 -0.4107208 2.7685912
-0.61124891 -0.41063976 2.7675099
-0.59084618 -0.41037062 2.766917
-0.5669328 -0.40946192 2.7681539
-0.549119 -0.40913326 2.7679412
-0.52980024 -0.40907702 2.7667322
-0.51106435 -0.40945059 2.7641659
-0.48915079 -0.40891212 2.7643411
-0.47078571 -0.40851107 2.7643242
-0.45298859 -0.40808168 2.7644408
-0.4300625 -0.40721768 2.7656028
-0.41115651 -0.40674317 2.7657866
-0.38820046 -0.40621486 2.7658536
-0.36872974 -0.40550783 2.7667537
-0.34925902 -0.4048008 2.7676537
-0.33015764 -0.40488085 2.766017
-0.31061161 -0.40464652 2.765372
-0.29121438 -0.40425441 2.7652516
-0.27036411 -0.40452954 2.7628536
-0.2512145 -0.40404955 2.7630372
-0.23160711 -0.40321672 2.7643373
-0.21035995 -0.40248072 2.7652035
-0.18937896 -0.40219596 2.7646196
-0.17145613 -0.40191731 2.7642362
-0.15051101 -0.40109691 2.7653995
-0.1315154 -0.40035763 2.7664385
-0.11401868 -0.39983687 2.7668743
-0.08492285 -0.39924872 2.7666938
-0.067974791 -0.39901057 2.7662482
-0.048553064 -0.39851359 2.766468
-0.028380303 -0.39824507 2.7658892
-0.0073339702 -0.39768037 2.7662122
0.02898681 -0.3971552 2.7653062
0.045910366 -0.39702207 2.7645206
0.068491444 -0.39677456 2.7636998
0.085753083 -0.39588237 2.7653623
0.21088476 -0.39326945 2.764858
0.22885449 -0.39308527 2.7641633
0.24757293 -0.39264721 2.7642417
0.26422709 -0.39219123 2.7645271
0.29817227 -0.39150506 2.7643163
0.31029549 -0.39126 2.764241
0.32969275 -0.39086789 2.7641206
0.42425421 -0.38895649 2.7635338
0.45335001 -0.38836837 2.7633533
0.47517189 -0.38792726 2.7632179
0.49071696 -0.38779211 2.7625382
0.50342679 -0.38749543 2.7625887
0.58913058 -0.38562381 2.7625105
-0.11149602 -0.39936787 2.7682199
-0.094523445 -0.39902484 2.7681146
-0.0023866454 -0.39716241 2.7675428
0.0097692916 -0.39677742 2.7679212
0.024284534 -0.39662334 2.7673774
0.093649201 -0.39513758 2.7672191
0.11162103 -0.394649 2.7675159
0.13271639 -0.39387423 2.7685194
0.14888074 -0.39354753 2.768419
0.16995974 -0.39284286 2.7691958
0.18935695 -0.39245078 2.7690754
0.20813201 -0.39265636 2.7670531
0.22795534 -0.39250645 2.7661133
0.25177577 -0.39177412 2.7667823
0.27227175 -0.39112842 2.7674088
0.29114336 -0.39060241 2.7677624
0.30965069 -0.39057648 2.7665138
0.33066434 -0.39015174 2.7663834
0.3483358 -0.38957161 2.7669997
0.36839285 -0.38901088 2.767381
0.38812947 -0.38864186 2.7671611
0.40866551 -0.38854024 2.7660127
0.43024984 -0.38808304 2.7659469
0.45108873 -0.38771757 2.765636
0.46898544 -0.38755077 2.7648897
0.48981786 -0.38721329 2.7644882
0.51051319 -0.38642931 2.7655509
0.52817762 -0.38570654 2.7666323
0.5498547 -0.38502458 2.7672918
0.57063484 -0.38491112 2.7661643
0.59180027 -0.38452506 2.7658966
0.60884637 -0.38386697 2.7668123
0.49525526 -0.38459581 2.7726219
-0.96321887 -0.41131413 2.7906704
-0.94903427 -0.4109852 2.7907195
-0.93628621 -0.41055903 2.7911892
-0.90695912 -0.4099662 2.7910075
-0.88985151 -0.40962046 2.7909009
-0.71144462 -0.4060142 2.789794
-0.66651583 -0.40527457 2.7889662
-0.65200859 -0.4049533 2.7889676
-0.62346315 -0.40423584 2.7892478
-0.60979688 -0.40404379 2.7888885
-0.59174144 -0.40380526 2.7883649
-0.57458442 -0.40324777 2.7889447
-0.5477013 -0.40270442 2.7887776
-0.52710074 -0.40302521 2.7862487
-0.50780505 -0.40298128 2.785002
-0.4884882 -0.4019672 2.7869132
-0.47026977 -0.40159893 2.7868001
-0.4500922 -0.40136334 2.7861135
-0.43205482 -0.40050727 2.7876027
-0.40924478 -0.4000462 2.787461
-0.39295194 -0.39971685 2.78736
-0.37418219 -0.39919698 2.7877009
-0.32530355 -0.39820898 2.7873976
-0.30819604 -0.39786321 2.7872913
-0.28629947 -0.39784184 2.7857833
-0.2700313 -0.39761832 2.7853394
-0.24964051 -0.39710093 2.7855558
-0.22924151 -0.39654818 2.7858863
-0.20884247 -0.39599541 2.7862172
-0.18929103 -0.39560023 2.7860959
-0.17138532 -0.39530852 2.7857559
-0.1532706 -0.39481586 2.7860553
-0.13956483 -0.3944546 2.7862446
-0.061359052 -0.39287376 2.7857592
-0.034475811 -0.39233038 2.7855926
-0.017368296 -0.39198458 2.7854862
0.052234329 -0.39078838 2.7843683
0.066683166 -0.39036983 2.7846901
-0.96259451 -0.41012794 2.7944887
-0.9288556 -0.40998757 2.792515
-0.90930414 -0.40959239 2.7923939
-0.88975275 -0.40919721 2.7922726
-0.8773849 -0.40831533 2.7942538
-0.70645797 -0.40549216 2.7911351
-0.68826061 -0.40494388 2.79161
-0.67546856 -0.40472528 2.7914002
-0.64535964 -0.40425718 2.7907557
-0.63069612 -0.40396076 2.7906647
-0.61603248 -0.40366438 2.7905738
-0.56470996 -0.40262696 2.7902553
-0.55004638 -0.40233055 2.7901642
-0.53538281 -0.40203416 2.7900732
-0.42540592 -0.39981115 2.7893908
-0.41563016 -0.39961359 2.78933
-0.36675161 -0.39862555 2.7890267
-0.35203859 -0.39811757 2.7896211
-0.33127755 -0.39775059 2.7893207
-0.30643505 -0.39726594 2.7891097
-0.29094034 -0.39688253 2.7892423
-0.22989148 -0.39585915 2.7881773
-0.20300822 -0.3953158 2.7880104
-0.19179364 -0.39490855 2.7885289
-0.17123713 -0.39467356 2.7878132
-0.15168568 -0.39427838 2.7876921
-0.13002686 -0.39338109 2.7890542
-0.11086589 -0.392764 2.7896836
-0.08770968 -0.39262411 2.788471
-0.067535423 -0.39224043 2.7882671
-0.048892394 -0.39156863 2.7891123
-0.029489148 -0.39180836 2.7869337
-0.0090242578 -0.39097354 2.7881784
0.0094480924 -0.39023897 2.7892401
0.03086034 -0.39030764 2.7874737
0.046305634 -0.39013588 2.7869208
0.06726303 -0.38967213 2.7869213
0.088281579 -0.38894641 2.7877707
0.11165825 -0.38804254 2.7890303
0.13044447 -0.38745227 2.7895999
0.15325448 -0.38699117 2.7894583
0.17120957 -0.38648778 2.7898042
0.19076101 -0.38609254 2.7896829
0.21021365 -0.38612065 2.7881901
0.23132852 -0.38597462 2.7871444
0.24934123 -0.38522443 2.78829
0.26896676 -0.38451177 2.7891974
0.31145167 -0.38382149 2.7883849
0.32893497 -0.38348696 2.7882154
0.35206041 -0.38283217 2.7886817
0.37161186 -0.38243693 2.7885604
0.39116335 -0.38204175 2.788439
0.41214162 -0.3817862 2.78776
0.43021685 -0.38146308 2.7875106
0.45109856 -0.38115796 2.7869997
0.47026762 -0.38077986 2.7868505
0.48882177 -0.38048902 2.7864609
0.50649428 -0.3800382 2.7866559
0.52557951 -0.37932464 2.787605
0.54513097 -0.37892947 2.7874837
0.57690209 -0.37828735 2.7872865
-0.051089324 -0.39055988 2.792556
0.17130837 -0.38606453 2.7911756
0.19085981 -0.38566929 2.7910542
0.20307946 -0.38542229 2.7909784
0.26417774 -0.38418731 2.7905993
0.28943172 -0.38367677 2.7904427
0.43233383 -0.38020918 2.7914419
0.44996586 -0.38022137 2.790132
0.47136262 -0.37973621 2.7901707
0.48906875 -0.37943089 2.7898893
0.5086202 -0.37903571 2.789768
0.52711719 -0.37869191 2.7895555
0.55011761 -0.37840751 2.7888248
0.56478119 -0.37811112 2.7887337
0.58433264 -0.37771589 2.7886124
-0.9638781 -0.40473768 2.8121374
-0.95397198 -0.40432507 2.8127675
-0.89729804 -0.40317953 2.8124158
-0.72234797 -0.39964321 2.8113301
-0.66813815 -0.39854738 2.8109937
-0.65828174 -0.39834818 2.8109324
-0.60779291 -0.39743376 2.8102732
-0.5932498 -0.39711863 2.8102522
-0.57696694 -0.39670452 2.8104277
-0.52700776 -0.39630818 2.8081195
-0.50809711 -0.39584336 2.8082712
-0.48825988 -0.3949115 2.8098772
-0.46859699 -0.39472637 2.8090634
-0.44840151 -0.39436066 2.8088
-0.43651411 -0.39386553 2.809556
-0.40694508 -0.39326784 2.8093727
-0.38969648 -0.39291918 2.8092656
-0.37737605 -0.39267012 2.8091891
-0.28379065 -0.39099082 2.8079166
-0.27094752 -0.39060378 2.8082519
-0.25170773 -0.39012992 2.8084092
-0.23199505 -0.3897315 2.8082869
-0.21474646 -0.38938281 2.8081799
-0.96357924 -0.40345746 2.8162856
-0.95293474 -0.40338385 2.8157585
-0.93330508 -0.403341 2.8144836
-0.91088414 -0.40284738 2.8144763
-0.89352852 -0.40220666 2.8153129
-0.7246626 -0.39905289 2.8134193
-0.71153748 -0.39885834 2.8131075
-0.68518746 -0.39804262 2.8138661
-0.6705026 -0.39817047 2.8123915
-0.65078992 -0.39777198 2.8122692
-0.62940133 -0.39719811 2.8125978
-0.61629266 -0.39707473 2.8120551
-0.59165186 -0.39657661 2.8119023
-0.56947511 -0.39612833 2.8117647
-0.55222648 -0.3957797 2.8116577
-0.53990602 -0.39553064 2.8115811
-0.42708698 -0.39287862 2.8120914
-0.41298079 -0.39285889 2.8111393
-0.38713279 -0.39244258 2.8106329
-0.36983439 -0.3918806 2.8112173
-0.34839597 -0.39109328 2.812237
-0.32984647 -0.39077494 2.8119376
-0.31161225 -0.3904064 2.8118243
-0.29196143 -0.38997278 2.811821
-0.27293032 -0.38999259 2.8103855
-0.25160813 -0.38970318 2.8097918
-0.23079671 -0.38910049 2.8102555
-0.21129498 -0.38860518 2.8104639
-0.19163504 -0.38779584 2.8116837
-0.16920143 -0.38758439 2.8107562
-0.14748427 -0.38700381 2.8110826
-0.12978095 -0.38610804 2.8127248
-0.10844216 -0.38574746 2.8123617
-0.088098206 -0.38550994 2.8116698
-0.070032306 -0.38509855 2.8117085
-0.041862048 -0.38418937 2.8126404
-0.029740851 -0.38479379 2.8097985
-0.011397046 -0.38395578 2.8112061
0.010193058 -0.38331914 2.8117244
0.028491247 -0.38327691 2.8105435
0.05021571 -0.38296524 2.8099937
0.069475465 -0.38242885 2.810353
0.087669134 -0.38191089 2.8107297
0.10839733 -0.38136443 2.8110161
0.12815982 -0.38075262 2.8115852
0.14787249 -0.38035414 2.8114629
0.16019292 -0.38010514 2.8113863
0.2159791 -0.3792606 2.810118
0.23058607 -0.379022 2.8098428
0.24986571 -0.37837741 2.8105531
0.27600491 -0.37776414 2.8106675
0.28832534 -0.37751514 2.8105912
0.31050211 -0.37706685 2.8104534
0.3302148 -0.37666839 2.8103311
0.34992746 -0.37626997 2.8102088
0.36964011 -0.37587148 2.8100865
0.38935283 -0.37547299 2.8099642
