# .PCD v0.7 - Point Cloud Data file format
VERSION 0.7
FIELDS x y z
SIZE 4 4 4
TYPE F F F
COUNT 1 1 1
WIDTH 1447
HEIGHT 1
VIEWPOINT 0 0 0 1 0 0 0
POINTS 1447
DATA ascii
-0.49546131 -0.70014369 1.853
-0.46459651 -0.70014369 1.853
-0.44988447 -0.70115036 1.8492501
-0.42390114 -0.70175427 1.8470001
-0.41706222 -0.70193326 1.8463334
-0.36225533 -0.70014369 1.853
-0.34925961 -0.70014369 1.853
-0.33051825 -0.70148587 1.848
-0.30634084 -0.70229119 1.8450001
-0.98604923 -0.69689476 1.853
-0.94306844 -0.69667953 1.849
-0.9286831 -0.69421369 1.8478149
-0.91110379 -0.69395977 1.8484284
-0.89022368 -0.68991435 1.8488334
-0.86989313 -0.68400371 1.8474445
-0.85000044 -0.6901468 1.8480002
-0.82942021 -0.69228786 1.8475833
-0.80992442 -0.69305569 1.8479999
-0.79144418 -0.68821537 1.8464286
-0.77061516 -0.69194871 1.8480004
-0.75013959 -0.69517487 1.8478148
-0.73008227 -0.69039339 1.8475832
-0.71112692 -0.68802315 1.847783
-0.68833554 -0.69385856 1.8478148
-0.66922969 -0.6953975 1.848385
-0.64953864 -0.69288599 1.846478
-0.63120681 -0.69490165 1.8483847
-0.61145735 -0.69705129 1.8472857
-0.58921343 -0.69608611 1.8472308
-0.56872386 -0.69109875 1.8473481
-0.54938626 -0.69213551 1.8466363
-0.52993178 -0.69362426 1.8463334
-0.51152575 -0.69650441 1.8491113
-0.489838 -0.69589007 1.8487146
-0.47189608 -0.69587594 1.8474443
-0.44835514 -0.69472909 1.8499236
-0.42948228 -0.69370919 1.849111
-0.40952894 -0.6940729 1.84997
-0.38994458 -0.69479108 1.8496667
-0.37200782 -0.69398147 1.8499231
-0.3494412 -0.6979779 1.8463334
-0.32901493 -0.69339687 1.8482777
-0.31060416 -0.69569355 1.8485556
-0.29012144 -0.69153583 1.8488334
-0.27032021 -0.69070542 1.8477062
-0.24900846 -0.68852705 1.8480004
-0.23005137 -0.68690515 1.8480004
-0.21042047 -0.68628705 1.8463333
-0.18975984 -0.6879645 1.8467927
-0.17014384 -0.68840593 1.8465133
-0.14999048 -0.69261187 1.8476666
-0.12873669 -0.68962938 1.8463336
-0.1109351 -0.69045645 1.8472856
-0.091045216 -0.6868754 1.8473477
-0.070634268 -0.69008279 1.8466846
-0.047901023 -0.68946815 1.8452216
-0.029445674 -0.68964487 1.8480004
-0.010750245 -0.68985504 1.8481517
0.00982475 -0.69088238 1.8486252
0.029151214 -0.69199347 1.8471664
0.049544614 -0.69262022 1.8484548
0.069816083 -0.68644172 1.8467497
0.090675391 -0.68491268 1.847
0.11056305 -0.68588471 1.8472426
0.12888117 -0.69185746 1.8488063
0.14924413 -0.69180954 1.8488333
0.16969571 -0.69014746 1.8480002
0.19048339 -0.69040579 1.8505003
0.21113427 -0.69054753 1.851667
0.23081505 -0.68930328 1.8506671
0.24812025 -0.68524259 1.8487142
0.27028087 -0.6817084 1.8461579
0.28998899 -0.68734968 1.8488338
0.30826694 -0.68634504 1.8489375
0.3299768 -0.68100744 1.8473753
0.34962395 -0.68256414 1.8488826
0.36030036 -0.68020827 1.8430001
0.45401075 -0.68020827 1.8430001
0.66728276 -0.68020833 1.8430002
0.69169772 -0.68092632 1.8430002
0.71017212 -0.6816771 1.8430003
0.72437066 -0.68128538 1.8430002
0.77391869 -0.68020827 1.8430001
0.7880196 -0.68094295 1.8450003
-0.042236045 -0.67740119 1.853
0.092594407 -0.67740119 1.853
0.10992202 -0.67631811 1.853
0.12183475 -0.67740119 1.853
0.26966095 -0.67740119 1.853
0.28428108 -0.67577684 1.853
0.31189695 -0.67740119 1.853
0.32976609 -0.67740119 1.853
0.35316098 -0.67586482 1.8507777
0.3701649 -0.67274851 1.8488619
0.38946196 -0.67281264 1.8480004
0.41062474 -0.66809762 1.8486253
0.4308784 -0.66720641 1.8486526
0.44878492 -0.67009217 1.8490003
0.47001526 -0.6708073 1.8471668
0.49176177 -0.67011636 1.8467503
0.50990278 -0.66833138 1.8475455
0.53060937 -0.665254 1.8477997
0.54888648 -0.66704381 1.8463336
0.5688234 -0.66500801 1.8465481
0.58947933 -0.66499144 1.845963
0.61075324 -0.66515189 1.8460768
0.63074923 -0.66937542 1.8481286
0.64974701 -0.66828626 1.8464091
0.66954899 -0.66905075 1.8472503
0.68932819 -0.66943711 1.847772
0.70965421 -0.668823 1.8478886
0.73043138 -0.67185467 1.8488622
0.75052196 -0.66804469 1.8478484
0.76976347 -0.67063141 1.8485552
0.78990275 -0.67372447 1.849522
0.80985957 -0.67224842 1.8474823
0.82950097 -0.66917378 1.8472859
0.8503136 -0.66939229 1.8475001
0.86867517 -0.67169547 1.8488826
0.88971609 -0.66474903 1.8482634
0.57506001 -0.65790766 1.853
0.60754931 -0.65790766 1.853
0.63841408 -0.65790766 1.853
0.64978534 -0.65709543 1.8529999
0.66602999 -0.65790766 1.853
0.69364583 -0.65790766 1.853
0.70501709 -0.65790766 1.853
0.75375098 -0.65790766 1.853
0.89697266 -0.65720958 1.848
0.90907234 -0.65191031 1.8492502
-0.98787498 -0.70716816 1.8661581
-0.97150761 -0.70293903 1.8680004
-0.95707279 -0.70065564 1.863
-0.36257705 -0.70065564 1.863
-0.34951121 -0.70065564 1.863
-0.96385199 -0.69538558 1.8730001
-0.9493739 -0.69297749 1.8677063
-0.93115622 -0.68813854 1.867118
-0.9095636 -0.68537837 1.8676156
-0.89190787 -0.68404788 1.8693163
-0.86714447 -0.68384784 1.8668101
-0.85105622 -0.68789232 1.8705006
-0.8303045 -0.6871441 1.8683339
-0.81203043 -0.68400329 1.8675002
-0.79065925 -0.68370402 1.8693163
-0.7707935 -0.68785948 1.8697572
-0.75072539 -0.68723208 1.8692968
-0.73064315 -0.68342626 1.8656093
-0.70884824 -0.68616885 1.8683851
-0.68745637 -0.68917924 1.8682636
-0.67000157 -0.68936425 1.8682177
-0.65087557 -0.68949687 1.8670006
-0.6304723 -0.69209367 1.8680005
-0.60995597 -0.69531852 1.8682947
-0.59135991 -0.69052011 1.8680005
-0.57102919 -0.68762642 1.8680006
-0.55048132 -0.68810093 1.8688335
-0.52838773 -0.69101417 1.8667504
-0.50827128 -0.69046438 1.8667505
-0.4904232 -0.68698865 1.8665484
-0.46993476 -0.68905348 1.8663336
-0.45171237 -0.68649024 1.8650002
-0.43066368 -0.68379045 1.8661999
-0.40889686 -0.68526196 1.8662145
-0.38976145 -0.68475503 1.864852
-0.36972663 -0.68870389 1.8678001
-0.35056457 -0.69186473 1.869452
-0.33054674 -0.68518585 1.8696668
-0.30933306 -0.68697333 1.8675455
-0.29016191 -0.68507487 1.8670912
-0.27045619 -0.68485081 1.8650692
-0.25046873 -0.68409842 1.8674002
-0.22865221 -0.68269014 1.8630003
-0.20890053 -0.68231916 1.8659416
-0.18990061 -0.68433625 1.8682947
-0.16924514 -0.68259084 1.8665719
-0.15091656 -0.68576252 1.8689263
-0.13113697 -0.68407416 1.8687148
-0.11056338 -0.68425679 1.8684168
-0.088874556 -0.6836223 1.8680006
-0.068525985 -0.68624175 1.8688625
-0.052649561 -0.68407124 1.8665296
-0.028723506 -0.68122584 1.8675456
-0.0087100519 -0.68368357 1.8687899
0.0092768874 -0.684515 1.8680005
0.027998984 -0.68772346 1.8663336
0.049650017 -0.68688715 1.869471
0.068797842 -0.68310875 1.8686254
0.081260279 -0.68118083 1.8663334
0.13339721 -0.68624514 1.8657782
0.150693 -0.68522352 1.8668464
0.17051795 -0.68463647 1.8651428
0.18979222 -0.68390429 1.8663337
0.20918675 -0.68415797 1.8653078
0.22709297 -0.68393826 1.8636254
0.2498842 -0.68203688 1.8630002
0.29520634 -0.68391508 1.863
0.30323637 -0.68214577 1.8630002
-0.90891987 -0.67665184 1.8730005
-0.89105678 -0.67595524 1.8730005
-0.87262994 -0.67668504 1.8730003
-0.74218249 -0.67814463 1.8730001
-0.72904652 -0.67814463 1.8730001
-0.71591055 -0.67814463 1.8730001
-0.44438714 -0.67805612 1.8705001
-0.43933886 -0.67779046 1.863
-0.40393117 -0.67814463 1.8730001
-0.38855943 -0.6773755 1.8718891
-0.37820658 -0.67704999 1.8730001
-0.32018936 -0.67814463 1.8730001
-0.31690535 -0.67814463 1.8730001
-0.28078142 -0.67814463 1.8730001
-0.26811463 -0.67767549 1.8730003
-0.24958348 -0.67650259 1.8730005
-0.23024032 -0.67719084 1.8692505
-0.2100784 -0.67674679 1.872167
-0.17007457 -0.67800301 1.8690001
-0.15106368 -0.67814463 1.8730001
-0.13300173 -0.67814463 1.8730001
-0.11493976 -0.67814463 1.8730001
-0.067321867 -0.67814463 1.8730001
-0.047133107 -0.67600811 1.8722863
-0.03499566 -0.6764437 1.8713335
0.092099734 -0.67674798 1.8665718
0.11090831 -0.67528385 1.8673754
0.12456965 -0.67693186 1.8696668
0.15927367 -0.67814463 1.8730001
0.17240965 -0.67814463 1.8730001
0.19375561 -0.67814463 1.8730001
0.21181756 -0.67732358 1.8730001
0.22981031 -0.6744867 1.8698003
0.24867749 -0.67542839 1.8668097
0.27061591 -0.6759848 1.8675003
0.28972554 -0.67366421 1.8682636
0.30974749 -0.67581969 1.8675003
0.33097506 -0.67362791 1.8690003
0.35053986 -0.67085677 1.8673242
0.36929026 -0.66494447 1.8664616
0.38985547 -0.66596532 1.8671381
0.40890598 -0.66677183 1.8670912
0.42949161 -0.66385192 1.8687899
0.45069581 -0.66393018 1.8638334
0.46860501 -0.66738093 1.870084
0.48961601 -0.66611254 1.8692963
0.50995409 -0.66441512 1.8687147
0.52754062 -0.66239238 1.8673755
0.55174726 -0.66354418 1.8663338
0.56437171 -0.6628446 1.8660001
0.59366417 -0.66230798 1.8642499
0.61082798 -0.66145813 1.863
0.63093227 -0.6622532 1.8665719
0.67779046 -0.66145813 1.863
0.68816584 -0.66161799 1.8690003
0.71698797 -0.66145813 1.863
0.73115134 -0.66525716 1.8673754
0.74694818 -0.66384256 1.8680003
0.77219117 -0.66276467 1.8630002
0.79251909 -0.66647476 1.867167
0.81034297 -0.66766173 1.8685006
0.82876354 -0.66750687 1.8666366
0.85301185 -0.66566229 1.8688828
0.87004423 -0.6654731 1.8655
0.88735455 -0.66561955 1.8684549
0.4332526 -0.65750241 1.8730003
0.44998741 -0.65481645 1.8698006
0.46249574 -0.65734601 1.8730001
0.49588299 -0.65844065 1.8730001
0.5090189 -0.65844065 1.8730001
0.52938527 -0.65690583 1.8722312
0.54858255 -0.65715843 1.8722312
0.57271713 -0.65683681 1.8706477
0.5913558 -0.65581656 1.8708266
0.61082435 -0.65508145 1.8699238
0.62976736 -0.65692532 1.8720912
0.6494953 -0.65834105 1.8690003
0.66905117 -0.65832746 1.8684547
0.6955061 -0.65835762 1.8696668
0.70908225 -0.65831614 1.8680004
0.72083652 -0.65844065 1.8730001
0.75256485 -0.65834725 1.8692502
0.77065331 -0.65754193 1.8698754
0.78487444 -0.65679866 1.8730001
0.86413759 -0.65834105 1.8690001
0.89705867 -0.65528536 1.8657275
0.91177696 -0.6492824 1.8681726
0.92277497 -0.64512587 1.8630002
-0.98838425 -0.70196319 1.8885001
-0.97890264 -0.70157439 1.8830001
-0.98395699 -0.69770288 1.8940001
-0.96981901 -0.69161165 1.8923506
-0.95082814 -0.68650162 1.8891599
-0.93341035 -0.68512189 1.8839167
-0.86334932 -0.68341601 1.8830003
-0.84862471 -0.68319601 1.8839167
-0.8308503 -0.6819858 1.8866669
-0.81026065 -0.68185979 1.8845717
-0.78906488 -0.68176526 1.8830003
-0.76915824 -0.68255788 1.8852001
-0.75383508 -0.68209618 1.8885002
-0.70753562 -0.6843704 1.8866669
-0.69082135 -0.6843738 1.8851998
-0.66987628 -0.68447071 1.8880002
-0.65036124 -0.68594116 1.8865198
-0.62931484 -0.68718642 1.8841376
-0.61140639 -0.68845856 1.8891472
-0.59143347 -0.68554366 1.8882383
-0.57116407 -0.68412346 1.883
-0.55078995 -0.68591392 1.8885001
-0.53112608 -0.68855453 1.8903337
-0.5127635 -0.68573493 1.8890002
-0.48887092 -0.68304515 1.887125
-0.4707281 -0.68347472 1.885588
-0.44984889 -0.682558 1.8852001
-0.42789623 -0.68185979 1.8845717
-0.41516697 -0.6825906 1.8830001
-0.36736903 -0.68523854 1.8885002
-0.35229859 -0.68462962 1.8866665
-0.33180341 -0.68176526 1.8830003
-0.30843982 -0.68187559 1.8848336
-0.29405165 -0.68267334 1.8843752
-0.20090921 -0.68242711 1.8940001
-0.19159813 -0.68269032 1.8874004
-0.17031755 -0.68220645 1.8903334
-0.15187022 -0.68176526 1.8830001
-0.12215649 -0.68176526 1.8830001
-0.10544021 -0.68189764 1.8852001
-0.089927219 -0.68185979 1.8845717
-0.072633587 -0.68176526 1.8830001
-0.02696247 -0.68176526 1.8830001
-0.0099045802 -0.68176526 1.8830003
0.011555343 -0.68286574 1.8830003
0.030539121 -0.68465412 1.8829999
0.048598208 -0.68369907 1.8837858
0.070122555 -0.68229389 1.8863001
0.0808874 -0.68176526 1.8830001
0.13494575 -0.68297601 1.8848336
0.14805728 -0.68280512 1.8885003
0.17002861 -0.68176526 1.8830001
0.18469203 -0.68198586 1.8866668
-0.92931414 -0.67584473 1.8906153
-0.90995169 -0.6717853 1.8866667
-0.89052939 -0.67161393 1.88828
-0.86972851 -0.675152 1.8857501
-0.84980416 -0.67788059 1.8881336
-0.82655442 -0.67661256 1.8906153
-0.80892277 -0.67642564 1.889111
-0.78958386 -0.67702436 1.8882107
-0.77061701 -0.67834836 1.8897697
-0.74941409 -0.6789456 1.89125
-0.72920609 -0.67818522 1.8896005
-0.71126568 -0.67894566 1.8912501
-0.69160581 -0.67889208 1.8903335
-0.64645165 -0.67799938 1.8940001
-0.63162637 -0.67733037 1.8905264
-0.61269003 -0.6791063 1.8940001
-0.59110475 -0.6791063 1.8940001
-0.571172 -0.67878503 1.8885
-0.55293071 -0.6789456 1.89125
-0.5047636 -0.6791063 1.8940001
-0.49148035 -0.67910635 1.8940001
-0.46835884 -0.67831355 1.8917999
-0.45034239 -0.67788059 1.8881339
-0.42784598 -0.67728132 1.8894705
-0.40694422 -0.67562711 1.8882107
-0.39003691 -0.67409748 1.8900403
-0.37596864 -0.67741048 1.8892858
-0.343566 -0.67884928 1.8896002
-0.32926956 -0.6773963 1.8874002
-0.31230125 -0.67857075 1.8848336
-0.28839707 -0.67878503 1.8885001
-0.26962113 -0.67851239 1.8889999
-0.24895318 -0.67396832 1.8894709
-0.22875333 -0.67611468 1.8881336
-0.20970584 -0.67436904 1.8885002
-0.1952164 -0.67625993 1.8940002
-0.16438025 -0.67744589 1.8940001
-0.1487398 -0.67611414 1.8896959
-0.12907457 -0.67514199 1.8875836
-0.11069846 -0.67617399 1.8878888
-0.087365255 -0.67695963 1.8891873
-0.069452211 -0.67465132 1.8862084
-0.05006237 -0.67260247 1.8870524
-0.030028548 -0.67514193 1.888238
-0.0092809191 -0.67725313 1.8907006
0.0099463686 -0.67612636 1.8903339
0.0297514 -0.67628574 1.890174
0.050018422 -0.6777451 1.8907653
0.068665616 -0.67764956 1.8918005
0.089286484 -0.6753037 1.8906524
0.10930184 -0.67403466 1.8891112
0.12802871 -0.67354822 1.890174
0.14999005 -0.67799932 1.8940002
0.17045544 -0.67656654 1.8907923
0.18994218 -0.67692202 1.8907003
0.21036224 -0.67426503 1.88828
0.22979304 -0.66825384 1.8903337
0.24960335 -0.6698035 1.8904518
0.26978835 -0.67115247 1.8903338
0.28912163 -0.66807616 1.8890691
0.3090075 -0.67066127 1.8892862
0.329211 -0.66842854 1.8887395
0.34937856 -0.66407478 1.8846923
0.36753502 -0.66222918 1.8885001
0.38767397 -0.66250587 1.8885002
0.41057736 -0.66320217 1.8859333
0.42216936 -0.66222918 1.8885002
0.47442937 -0.66327673 1.8830003
0.48587471 -0.66250634 1.8830003
0.6791063 -0.66250223 1.8940001
0.69048929 -0.66206533 1.8852001
0.73483467 -0.66291797 1.8857503
0.74271518 -0.66338599 1.8852001
0.79566789 -0.66360688 1.8830001
0.81031412 -0.66492218 1.8926256
0.83101761 -0.66644406 1.8920873
0.84805506 -0.6642763 1.8863481
0.869986 -0.66213816 1.886667
0.88987958 -0.66225404 1.8890003
0.28891075 -0.65918142 1.8940001
0.39458314 -0.65897065 1.8896002
0.40741369 -0.65910614 1.8924288
0.42924994 -0.65695041 1.8897226
0.44872826 -0.65126193 1.8887895
0.47153845 -0.65547013 1.8893685
0.49069995 -0.65640181 1.890174
0.50998205 -0.6542502 1.8864138
0.5310294 -0.6534487 1.8870527
0.55284828 -0.65205222 1.8883106
0.57139474 -0.64887977 1.8883517
0.59106642 -0.64654833 1.8865484
0.61015469 -0.64589506 1.8850371
0.63107258 -0.64981425 1.8874003
0.65059519 -0.65336359 1.8886776
0.66964239 -0.65513396 1.8903337
0.69161385 -0.65562129 1.8915559
0.70986229 -0.65573514 1.888261
0.73157102 -0.65595222 1.8922635
0.74859309 -0.65327293 1.8903339
0.77061397 -0.65566039 1.8896961
0.78832424 -0.65131468 1.8874
0.81083196 -0.65696752 1.8940002
0.82854289 -0.65657222 1.8940005
0.85012829 -0.65918142 1.8940001
0.86948603 -0.65655094 1.8919052
0.89253461 -0.65389371 1.8921672
0.90740609 -0.64682615 1.8866669
0.61511642 -0.63915372 1.8912501
0.89595556 -0.62796581 1.8940003
0.90821022 -0.63078499 1.8878602
-1.0039324 -0.70006657 1.9150001
-0.99816567 -0.70272195 1.904
-1.0022535 -0.69670892 1.9150001
-0.98985934 -0.691769 1.9071429
-0.97451901 -0.68547392 1.904
-0.95142877 -0.68269193 1.9040002
-0.77225566 -0.68327838 1.9150001
-0.71375197 -0.6828385 1.9067502
-0.68534231 -0.6828385 1.9067502
-0.67113745 -0.68283856 1.9067502
-0.65932345 -0.68269187 1.904
-0.61153436 -0.68288743 1.9076669
-0.5942257 -0.68269187 1.904
-0.57919174 -0.68327838 1.9150001
-0.5424813 -0.68269187 1.904
-0.53307337 -0.68481636 1.904
-0.51577461 -0.68269193 1.904
-0.36721814 -0.68269187 1.904
-0.35553393 -0.68269193 1.904
-0.30879706 -0.68269187 1.9040002
-0.29878202 -0.68269187 1.904
-0.27207527 -0.68269187 1.904
-0.18503487 -0.68292648 1.9083999
-0.17526321 -0.68269193 1.904
-0.98675686 -0.67501348 1.9150004
-0.97086358 -0.67630732 1.9099586
-0.95122784 -0.67702526 1.9085294
-0.93090314 -0.66943282 1.9119203
-0.91100574 -0.66667897 1.9074737
-0.88939774 -0.66681886 1.9084814
-0.87108767 -0.67468524 1.9108752
-0.84945089 -0.6766569 1.9095004
-0.83018345 -0.6752004 1.9101113
-0.80892372 -0.67410326 1.9128004
-0.79113615 -0.67364633 1.9121306
-0.76921558 -0.67394048 1.9129379
-0.74986464 -0.67587191 1.912434
-0.72906685 -0.67205739 1.9125559
-0.70962822 -0.67899883 1.9110719
-0.69029194 -0.67736048 1.9118572
-0.67181379 -0.6772148 1.9131669
-0.65237027 -0.67580998 1.9100498
-0.63036537 -0.67538697 1.9101111
-0.61118937 -0.67740309 1.9095004
-0.59064543 -0.67765361 1.908632
-0.5689562 -0.67768222 1.9098237
-0.5507859 -0.6770975 1.9111745
-0.53057885 -0.67726088 1.9122504
-0.5104959 -0.67861265 1.9113337
-0.48916116 -0.676256 1.9089499
-0.47142482 -0.67437905 1.9088402
-0.44944042 -0.67506087 1.9083042
-0.43018943 -0.67026967 1.9084688
-0.41126606 -0.67045277 1.9079598
-0.39034438 -0.66897804 1.9082778
-0.37 -0.6761415 1.9097621
-0.35065302 -0.67727232 1.9080526
-0.32835722 -0.67428648 1.9085834
-0.30969387 -0.6722635 1.9125859
-0.28917652 -0.67195177 1.9100503
-0.2700541 -0.67084968 1.9083421
-0.2498578 -0.66724724 1.9079032
-0.23024358 -0.66918528 1.9072351
-0.21143274 -0.66835624 1.9087145
-0.19113134 -0.67475981 1.9125003
-0.17158033 -0.67494702 1.9125558
-0.15112369 -0.67171913 1.9097894
-0.1309457 -0.6703974 1.9105002
-0.10989954 -0.67235637 1.9090414
-0.09064883 -0.67218643 1.9102335
-0.070363395 -0.6684261 1.9109672
-0.050710179 -0.66757208 1.909893
-0.030296901 -0.67109722 1.9095001
-0.0099617019 -0.67330635 1.9097897
0.01005147 -0.67148042 1.9101115
0.030236 -0.67192256 1.9103687
0.05154619 -0.67518479 1.911118
0.070784695 -0.67174 1.9095002
0.089598849 -0.66835624 1.909704
0.1097485 -0.67020798 1.9084004
0.13213018 -0.67010504 1.9078825
0.15087041 -0.67142618 1.9076668
0.16957887 -0.6679408 1.9076668
0.19068827 -0.66904324 1.9051377
0.21048898 -0.66688359 1.9072591
0.22848988 -0.66422206 1.9050001
0.25204515 -0.66377449 1.9040002
0.27062923 -0.66415972 1.9055713
0.2946091 -0.66516554 1.904
0.31130493 -0.66484141 1.9047856
0.33097368 -0.66403133 1.9067501
0.34937671 -0.66415972 1.9055715
0.37039834 -0.66313791 1.9053751
0.38557905 -0.66266179 1.904
0.81789494 -0.66266179 1.904
-0.92502803 -0.65977496 1.9150002
-0.89444125 -0.65968466 1.9128001
-0.28036237 -0.65977496 1.9150001
-0.26693186 -0.65881568 1.9150002
-0.24762546 -0.65893555 1.9150001
-0.2316767 -0.65977496 1.9150001
-0.21320973 -0.65977496 1.9150002
-0.070510298 -0.65977496 1.9150001
0.21992499 -0.65977496 1.9150001
0.2310065 -0.65954924 1.9095001
0.24942043 -0.65954924 1.9095
0.26836821 -0.65941375 1.9062001
0.28979367 -0.65908474 1.9107696
0.31082976 -0.6569919 1.9111742
0.3283022 -0.65680873 1.914313
0.35036641 -0.65798318 1.9122504
0.37056506 -0.65583688 1.9106004
0.38937709 -0.65391707 1.9091763
0.41047418 -0.6538918 1.9086128
0.43033156 -0.65012336 1.9104708
0.45021731 -0.64715046 1.9106789
0.47081232 -0.64894402 1.9095
0.49077982 -0.64966184 1.9106786
0.50977635 -0.64763975 1.9081249
0.53059304 -0.64958245 1.911792
0.55049127 -0.64810777 1.9111742
0.5687573 -0.64309341 1.9053752
0.59174079 -0.64272046 1.9067501
0.60757911 -0.64263171 1.904
0.6347847 -0.64397478 1.9067501
0.65225202 -0.64611232 1.9082778
0.67233306 -0.64676863 1.9079598
0.68998778 -0.64784044 1.9099582
0.70834905 -0.64994687 1.9121056
0.73239756 -0.65042973 1.9081249
0.75007349 -0.64526802 1.9065884
0.77043712 -0.6484375 1.908931
0.78821456 -0.64756268 1.9125559
0.81123817 -0.64938372 1.9061999
0.83182847 -0.64790308 1.9047854
0.85127836 -0.65097767 1.9039996
0.87106085 -0.64910477 1.9052221
0.89017004 -0.64680463 1.9039997
0.44992289 -0.63962913 1.9150002
0.46503222 -0.63962913 1.9150002
0.55904597 -0.63962913 1.9150001
0.57214242 -0.6380927 1.9109473
0.5895251 -0.6380918 1.9104165
0.61100334 -0.63946116 1.9094999
0.62820017 -0.63950324 1.9108751
0.68663597 -0.63962913 1.9150002
0.74934614 -0.6395452 1.91225
0.76050395 -0.63962913 1.9150001
0.78400737 -0.63962913 1.9150001
0.81164497 -0.63266647 1.9126848
0.83066851 -0.63333696 1.9131147
0.85070235 -0.63130075 1.90994
0.87144738 -0.63104808 1.9043051
0.89002705 -0.63273603 1.9039997
-1.0090594 -0.68774033 1.9316524
-0.71421862 -0.68044937 1.9260001
-0.5825187 -0.68044937 1.9260001
-1.0070212 -0.67210186 1.9360002
-0.9914704 -0.6678347 1.9335004
-0.96861267 -0.67481112 1.9316254
-0.94948977 -0.66657555 1.9306159
-0.933043 -0.66221398 1.9260002
-0.90375221 -0.66019899 1.9293334
-0.88857991 -0.66391462 1.9317145
-0.870673 -0.66861266 1.9311613
-0.85078281 -0.6692968 1.9313123
-0.83019513 -0.66592354 1.9275149
-0.81185782 -0.66512793 1.9271537
-0.78994256 -0.66707808 1.9303333
-0.77023929 -0.66358572 1.9310002
-0.75075096 -0.66501987 1.9281429
-0.72598571 -0.6658324 1.9285001
-0.70945168 -0.67093164 1.9301378
-0.68857151 -0.66956705 1.9298465
-0.66847497 -0.66762149 1.9304445
-0.65042162 -0.66847861 1.931556
-0.62985313 -0.66953295 1.9304829
-0.61141592 -0.66870308 1.9311285
-0.5906437 -0.66945565 1.9302104
-0.57099032 -0.66942245 1.9299393
-0.5502429 -0.66871065 1.9305457
-0.52899277 -0.67048156 1.930231
-0.50953555 -0.67258197 1.9318622
-0.49022633 -0.67128801 1.9319093
-0.46907756 -0.66923797 1.93225
-0.45134753 -0.66687131 1.9324518
-0.42916915 -0.66234589 1.9287273
-0.40982822 -0.66385502 1.9307998
-0.38962749 -0.66534978 1.9326669
-0.37166882 -0.67246318 1.9317145
-0.35037121 -0.67438638 1.9307621
-0.32951769 -0.66723824 1.9321541
-0.30974004 -0.6619944 1.930706
-0.29032207 -0.66313475 1.930667
-0.27321267 -0.66067976 1.9288573
-0.25252068 -0.66019452 1.9280001
-0.23020719 -0.66061407 1.9272501
-0.20564029 -0.66402286 1.9280003
-0.18917888 -0.66549683 1.9267141
-0.16897506 -0.66507494 1.9282219
-0.14960799 -0.66611999 1.9301671
-0.12826322 -0.66746813 1.932429
-0.1102208 -0.66563576 1.9290435
-0.092590444 -0.66372871 1.9269526
-0.070050679 -0.6611622 1.9288578
-0.050741468 -0.66132456 1.9293336
-0.029757794 -0.66654646 1.9305837
-0.010714359 -0.66746354 1.929704
0.010725725 -0.66622156 1.9315561
0.030486964 -0.66562152 1.9320006
0.050180208 -0.66723847 1.9305948
0.070755184 -0.66414154 1.9293334
0.091118306 -0.66207314 1.9287782
0.11103008 -0.66439736 1.9301381
0.1297673 -0.66434765 1.9291821
0.14884159 -0.66481102 1.9319999
0.16943045 -0.66246706 1.9326673
0.18979239 -0.66329157 1.9307827
0.20846681 -0.66218013 1.9277651
0.2302267 -0.66020447 1.9310002
0.25054082 -0.66020447 1.9310005
0.27052003 -0.66246724 1.932667
0.28721514 -0.66051763 1.9323639
0.34782276 -0.66018784 1.9260001
0.3630189 -0.66018784 1.9260001
-0.98778594 -0.65682673 1.9360001
-0.94365799 -0.65682673 1.9360001
-0.89889109 -0.65681887 1.9310001
-0.84182441 -0.65682673 1.9360001
-0.74825621 -0.6522035 1.9314547
-0.73296946 -0.65449071 1.9303753
-0.61439604 -0.65682673 1.9360001
-0.43279275 -0.65682673 1.9360001
-0.40903163 -0.65682673 1.9360001
-0.39545381 -0.65682673 1.9360002
-0.32077584 -0.65682673 1.9360001
-0.31228969 -0.65682673 1.9360001
-0.26577643 -0.65681887 1.9310001
-0.24903083 -0.6558513 1.9324291
-0.23075932 -0.65629846 1.9321542
-0.21329826 -0.65681887 1.931
-0.18863353 -0.65625572 1.932667
-0.17677049 -0.65682149 1.9326668
-0.10287596 -0.65569264 1.9343333
-0.089515269 -0.6559729 1.9326671
-0.077372268 -0.65625572 1.9326668
0.037338987 -0.65682673 1.9360001
0.044127893 -0.65682673 1.9360001
0.079769656 -0.65682673 1.9360001
0.089953013 -0.65682673 1.9360001
0.10862251 -0.65682673 1.9360001
0.12855139 -0.6568222 1.933143
0.19518107 -0.65682673 1.9360002
0.2105764 -0.65546584 1.9340005
0.2308228 -0.65512961 1.9360002
0.24677677 -0.65614784 1.9360001
0.29088044 -0.65640044 1.93475
0.30702183 -0.65448928 1.9322504
0.33179289 -0.65343094 1.9310005
0.34957457 -0.65418339 1.9315559
0.37080249 -0.65239131 1.9313849
0.38972411 -0.64855194 1.9282224
0.41089857 -0.64936668 1.9320006
0.42903867 -0.64440221 1.9313338
0.44068804 -0.64330328 1.9260001
0.47630072 -0.64464319 1.9280001
0.48782852 -0.64459383 1.9275388
0.51085293 -0.64442903 1.9260004
0.53085184 -0.64465415 1.9260005
0.54967046 -0.64483833 1.9260005
0.65005362 -0.64412946 1.9293336
0.66748744 -0.64380199 1.9298468
0.68720329 -0.64330328 1.9260001
0.71176267 -0.64545226 1.9260005
0.72899258 -0.6487906 1.926
0.74123394 -0.64330328 1.9260001
0.77331471 -0.64330328 1.9260001
0.7923702 -0.64426816 1.9260004
0.8057707 -0.64592975 1.9260004
0.43618727 -0.63985443 1.9360002
0.45045 -0.63790929 1.9295298
0.46778381 -0.63806945 1.9306159
0.49128616 -0.6389792 1.9320004
0.50931197 -0.63790423 1.9301181
0.53031588 -0.6393792 1.9298465
0.55096555 -0.63665831 1.9305456
0.56992793 -0.6353761 1.9307624
0.59236872 -0.63491619 1.9291581
0.61114883 -0.63275373 1.9293332
0.63132656 -0.63445783 1.9295714
0.64809817 -0.63694495 1.9360001
0.6722151 -0.63777661 1.9344618
0.68988729 -0.63422388 1.9326669
0.70944601 -0.63219762 1.9333808
0.72963446 -0.63171703 1.9316818
0.74905866 -0.63095939 1.9272501
0.77004802 -0.63157475 1.9262776
0.79019934 -0.63148409 1.9259998
0.81038743 -0.63317257 1.926
0.82688493 -0.62672567 1.9260005
-1.0278203 -0.68559283 1.9470004
-1.0474552 -0.66749966 1.9569129
-1.0312346 -0.66983217 1.954459
-1.0131774 -0.66544271 1.949667
-0.98562014 -0.66662043 1.9477061
-0.97149348 -0.66667503 1.9469999
-0.95527828 -0.66169661 1.9470003
-0.93707162 -0.6605587 1.9470001
-0.89078856 -0.66161001 1.9530002
-0.8720156 -0.66314697 1.9486004
-0.85250366 -0.66221738 1.949667
-0.8304466 -0.66158825 1.9546366
-0.80957353 -0.66190875 1.951
-0.7901603 -0.66131914 1.9521431
-0.77164465 -0.66074061 1.950429
-0.72594053 -0.66387182 1.9530001
-0.71064329 -0.6650371 1.9533157
-0.68983114 -0.66370475 1.9520527
-0.67098266 -0.66071784 1.9500003
-0.64686048 -0.66301376 1.9503335
-0.63334453 -0.66375834 1.9494002
-0.60565943 -0.66258907 1.9530001
-0.59079015 -0.66199517 1.9526002
-0.5705725 -0.66262549 1.9520527
-0.54959226 -0.66429973 1.9530003
-0.52933002 -0.66399378 1.9504286
-0.50940514 -0.66418713 1.951
-0.49067625 -0.6637103 1.9508182
-0.47137752 -0.66219705 1.9507896
-0.45232055 -0.6605587 1.9470001
-0.42330375 -0.6605587 1.9470001
-0.41135567 -0.6605587 1.9470001
-0.38377884 -0.66370749 1.9500003
-0.3700473 -0.66641521 1.9541996
-0.35097104 -0.66637534 1.9508568
-0.33511546 -0.66283447 1.9470003
-0.30343491 -0.66157126 1.95
-0.29205465 -0.66164649 1.9482002
-0.27651295 -0.6605587 1.9470001
-0.25773737 -0.6605587 1.9470001
-0.20581767 -0.66077089 1.9510002
-0.16704446 -0.66152948 1.951
-0.15018708 -0.66250587 1.953353
-0.13094987 -0.66502172 1.9553479
-0.11554004 -0.66171592 1.950429
-0.066567928 -0.6605587 1.9470003
-0.051206104 -0.6605587 1.9470003
-0.029781133 -0.66335243 1.95525
-0.009830283 -0.662507 1.9515003
0.0085513443 -0.66185552 1.9516156
0.027309919 -0.6605587 1.9470001
0.054028098 -0.66083145 1.9521432
0.068445764 -0.66139287 1.9520004
0.11232643 -0.66077089 1.9510001
0.12852022 -0.66098303 1.9550002
0.14818013 -0.66106498 1.9485003
0.170687 -0.6605587 1.9470003
0.18604884 -0.6605587 1.9470003
0.25773737 -0.6605587 1.9470001
0.26968548 -0.6605587 1.9470003
-1.021847 -0.65776038 1.9590001
-1.0090032 -0.65449077 1.9553999
-0.98997545 -0.65506434 1.9519088
-0.96817869 -0.6542505 1.9539475
-0.94879025 -0.65324086 1.9497271
-0.92973393 -0.64924097 1.9483335
-0.90954256 -0.65109473 1.9535456
-0.89035124 -0.65654749 1.9553999
-0.86751992 -0.65634471 1.9571538
-0.85158664 -0.65748692 1.9536667
-0.83140701 -0.65724206 1.9563332
-0.81232542 -0.6566155 1.9589999
-0.78900516 -0.65378332 1.9589999
-0.76995152 -0.65277869 1.9579563
-0.74969947 -0.65207636 1.9562309
-0.73424369 -0.65475869 1.9523335
-0.66354847 -0.65739119 1.9518002
-0.6494295 -0.65722436 1.9546363
-0.62871248 -0.65555507 1.9549999
-0.61447817 -0.65710527 1.9536667
-0.59192711 -0.65547061 1.9589999
-0.57601261 -0.65638649 1.959
-0.52320331 -0.65751427 1.9542001
-0.49031484 -0.65776038 1.9590001
-0.47056484 -0.65776038 1.959
-0.45049194 -0.65434009 1.9512354
-0.43046966 -0.65502936 1.9514213
-0.40934548 -0.65506727 1.951
-0.3906208 -0.6551466 1.9526002
-0.36752146 -0.65776038 1.9590001
-0.34891638 -0.65575683 1.9589999
-0.32991725 -0.65469456 1.9549997
-0.30882066 -0.65537387 1.956
-0.28969875 -0.65354276 1.9553477
-0.27035686 -0.65168726 1.9547645
-0.25047195 -0.64979559 1.9547412
-0.22924051 -0.65052086 1.9535139
-0.21131846 -0.65232372 1.9546797
-0.19077645 -0.65573978 1.9530002
-0.17135687 -0.65629727 1.9562309
-0.15211169 -0.65530711 1.9589999
-0.12365209 -0.65604299 1.9590001
-0.10913974 -0.65340799 1.9562725
-0.090082876 -0.65262359 1.9548261
-0.068916231 -0.65368068 1.956333
-0.050204828 -0.6551311 1.9555709
-0.034307472 -0.65594041 1.9570001
-0.012318681 -0.65671176 1.9568182
0.011141995 -0.6576066 1.9559999
0.030818343 -0.6574527 1.9530001
0.048254114 -0.65758455 1.9555717
0.067570493 -0.6576373 1.9566002
0.090349965 -0.65739119 1.9518002
0.10625012 -0.6573208 1.950429
0.13165839 -0.65646851 1.9543847
0.15184996 -0.65624279 1.9545
0.17106573 -0.65394348 1.9513636
0.19079313 -0.65316486 1.9522799
0.20933917 -0.65199536 1.9526471
0.22919045 -0.65164655 1.951
0.25095904 -0.65090054 1.9519652
0.26985306 -0.65005559 1.9516665
0.28961474 -0.651326 1.9496665
0.30905712 -0.65006548 1.9543042
0.3307049 -0.6513176 1.9535999
0.35082808 -0.64664388 1.9521428
0.36915636 -0.64662629 1.9517996
0.38936868 -0.64576721 1.9527777
0.40904626 -0.64502454 1.9533998
0.42811409 -0.64193827 1.9470004
0.4437862 -0.64007622 1.9470001
0.47963047 -0.64007622 1.9470001
0.48623964 -0.64033139 1.9530001
0.53083658 -0.64007622 1.9470001
0.54278469 -0.64007622 1.9470001
0.65373123 -0.64007628 1.9470003
0.66567928 -0.64007622 1.9470001
0.35893452 -0.63715166 1.9590001
0.37095627 -0.63715172 1.959
0.39499968 -0.63715166 1.9590001
0.41078639 -0.63526458 1.9580768
0.42954344 -0.6344533 1.9559999
0.45028257 -0.63425773 1.9530002
0.47028565 -0.63204527 1.9534612
0.49159589 -0.63567996 1.9566
0.5102281 -0.63393599 1.9521428
0.52953392 -0.63371831 1.9553479
0.54997873 -0.63170451 1.9548458
0.57014197 -0.62872529 1.9542
0.59070021 -0.62872523 1.9541997
0.6084013 -0.62584299 1.95
0.63032269 -0.62617749 1.9470005
0.65016687 -0.62906826 1.9522798
0.66870826 -0.62969697 1.9508913
0.68839383 -0.62904727 1.9470004
0.56330395 -0.61997777 1.9590001
0.59421694 -0.61997777 1.9590001
0.61296982 -0.61257362 1.9576284
0.62941664 -0.61217612 1.9547646
-1.0483092 -0.66145378 1.9700001
-1.034493 -0.66145384 1.9700001
-0.89978439 -0.66145378 1.9700001
-0.7265054 -0.66260517 1.9700001
-0.70981067 -0.66318077 1.9700001
-0.6908133 -0.66145378 1.9700001
-0.67527008 -0.66145384 1.9700001
-0.61079413 -0.66260517 1.9700001
-0.56646693 -0.66145378 1.9700001
-0.5491966 -0.66318077 1.9700001
-0.53538036 -0.66145378 1.9700001
-0.51120186 -0.66145378 1.9700001
-0.48875043 -0.66145378 1.9700001
-0.38340139 -0.66145378 1.9700001
-0.37822029 -0.66145378 1.9700001
-0.1347086 -0.66145378 1.9700001
-0.032813635 -0.66145384 1.9700001
-1.0275848 -0.65799969 1.9700001
-1.0116099 -0.65152335 1.9700001
-0.99235344 -0.65454561 1.9700001
-0.97404677 -0.65109158 1.9700001
-0.92568982 -0.64850104 1.9700001
-0.90732056 -0.65140557 1.97
-0.89266032 -0.653898 1.9699998
-0.86919123 -0.65503907 1.9700003
-0.84970045 -0.65627277 1.97
-0.82910883 -0.65427995 1.97
-0.8099786 -0.65401429 1.97
-0.79232448 -0.64878881 1.9700001
-0.7704488 -0.64763749 1.9700001
-0.74857301 -0.65109158 1.9700001
-0.73091894 -0.65569699 1.9700001
-0.70981073 -0.65799969 1.9700001
-0.69184953 -0.65799969 1.9700001
-0.66905278 -0.65661812 1.9700001
-0.64878881 -0.65320235 1.9699999
-0.62933099 -0.65385479 1.9700001
-0.60860652 -0.65523648 1.9700001
-0.58949405 -0.65339434 1.97
-0.56837577 -0.65345496 1.97
-0.54574251 -0.65799969 1.9700001
-0.53019923 -0.65799969 1.9700001
-0.51120186 -0.65799975 1.9700001
-0.4887504 -0.65713614 1.9700001
-0.46935451 -0.65481132 1.97
-0.44981369 -0.65234756 1.97
-0.42887995 -0.65454566 1.9700001
-0.40930685 -0.65281862 1.9700001
-0.3895694 -0.65503907 1.9700003
-0.36854896 -0.65523648 1.9699999
-0.34886074 -0.65281862 1.9700001
-0.32986337 -0.64936447 1.9700001
-0.31132048 -0.64927357 1.97
-0.29143688 -0.6489327 1.9700001
-0.2706508 -0.64467692 1.9700003
-0.25560093 -0.64418346 1.9700001
-0.23142245 -0.64418346 1.9700001
-0.20551698 -0.65109158 1.9700001
-0.18939798 -0.65396994 1.97
-0.16909228 -0.65234762 1.97
-0.14933081 -0.6504007 1.9699999
-0.13315426 -0.65264589 1.9700001
-0.11053014 -0.64994019 1.9700001
-0.0880787 -0.64878881 1.9700001
-0.069081336 -0.64665067 1.9699999
-0.050083965 -0.64936447 1.9700001
-0.030422356 -0.65481138 1.97
-0.0097865229 -0.65531313 1.9700001
0.011225716 -0.65497738 1.9699998
0.031086599 -0.65627271 1.97
0.048603646 -0.65701282 1.9700003
0.071214736 -0.65413928 1.9699999
0.090433739 -0.65297562 1.9700003
0.11053014 -0.65281862 1.9700003
0.13007288 -0.65236413 1.97
0.1502519 -0.65350938 1.9700001
0.16924927 -0.65051591 1.97
0.18548338 -0.65040076 1.9700001
0.2106981 -0.65109158 1.9700001
0.22969542 -0.65109158 1.9700001
0.25041986 -0.6464861 1.97
0.27079883 -0.642111 1.9700001
0.29014161 -0.64763749 1.9700001
0.31209961 -0.64541703 1.9699999
0.32909581 -0.6491726 1.9700001
0.34799725 -0.6433199 1.9700001
0.38858247 -0.64072937 1.9700001
0.26769018 -0.63727528 1.9700001
0.30913895 -0.63727528 1.9700001
0.35576886 -0.63727528 1.9700001
0.36958513 -0.63727528 1.9700001
0.39030957 -0.63727528 1.9700001
0.40980038 -0.63382131 1.9700003
0.4300313 -0.63036722 1.9700001
0.44960436 -0.6315186 1.9700001
0.46840981 -0.62806445 1.9700001
0.49126244 -0.63162327 1.97
0.51120192 -0.63036722 1.97
0.53093934 -0.62543279 1.9699999
0.5489499 -0.62559724 1.9700001
0.57061177 -0.62138665 1.9700001
0.5892638 -0.62138671 1.9700001
0.60388601 -0.62115633 1.9700001
0.65799969 -0.62518609 1.9700001
0.55265063 -0.61655092 1.9700001
0.57214147 -0.61112303 1.9700001
0.59064537 -0.60964274 1.9700005
0.60446167 -0.6096428 1.9700001
-1.0815147 -0.6656819 1.9930001
-1.0679512 -0.66431212 1.9908184
-1.0495949 -0.66186643 1.9855001
-0.68946064 -0.66167378 1.9810001
-0.56094658 -0.66341048 1.9810001
-0.55747318 -0.66167378 1.9810001
-1.0850091 -0.65869313 1.9930001
-1.0665388 -0.6576947 1.9930003
-1.0491745 -0.65705997 1.9919093
-1.0303749 -0.65294999 1.9873161
-1.010254 -0.64851606 1.9878572
-0.98885936 -0.64774483 1.9858001
-0.96978855 -0.64960939 1.9908184
-0.95137447 -0.64917701 1.9912224
-0.93123329 -0.64593893 1.9882001
-0.90932465 -0.64524412 1.9853637
-0.89347416 -0.65089977 1.9880592
-0.86921543 -0.65505719 1.9894001
-0.84899145 -0.65009874 1.9860771
-0.83163482 -0.6513868 1.9846003
-0.81022298 -0.65097177 1.9890002
-0.78976601 -0.64771539 1.9922004
-0.7687735 -0.64802289 1.9878573
-0.75034159 -0.65118569 1.9875456
-0.72886693 -0.65374482 1.9842727
-0.70976371 -0.65408295 1.9848182
-0.69088709 -0.65588617 1.9845296
-0.67102557 -0.65306622 1.9854214
-0.6490351 -0.65008551 1.9870003
-0.62992477 -0.65002233 1.9843336
-0.61275893 -0.65086371 1.9846003
-0.58989972 -0.64843088 1.9830004
-0.56852967 -0.64958251 1.9850001
-0.54905236 -0.65308911 1.9854447
-0.52975935 -0.65012228 1.9866472
-0.51080054 -0.65091628 1.9865389
-0.48944128 -0.6520015 1.9878572
-0.46970072 -0.64715087 1.9860771
-0.44988713 -0.64862573 1.9870001
-0.43059358 -0.64899874 1.986647
-0.40918535 -0.64651716 1.9847713
-0.39044809 -0.65008771 1.98724
-0.36957943 -0.65079576 1.9862503
-0.35036561 -0.649885 1.9864002
-0.32963139 -0.64598113 1.9855005
-0.30990946 -0.64522743 1.9910001
-0.29131952 -0.64607382 1.9898423
-0.26700342 -0.64630389 1.9930003
-0.24877094 -0.64433366 1.9873159
-0.22958234 -0.64606041 1.9877503
-0.21176182 -0.64716643 1.9898003
-0.19099486 -0.65146124 1.9866005
-0.16955796 -0.64970762 1.9862502
-0.1502381 -0.64468002 1.9866847
-0.12946373 -0.64690101 1.9890002
-0.11036139 -0.64633143 1.9872609
-0.090561867 -0.64434516 1.9865001
-0.069627792 -0.64233631 1.9856669
-0.049883977 -0.64627743 1.9877502
-0.030889265 -0.64986748 1.9838573
-0.009444382 -0.64848077 1.9860908
0.010009561 -0.64641017 1.9855
0.030801995 -0.64759111 1.9845294
0.049880031 -0.64975417 1.9877501
0.069321699 -0.64839828 1.98676
0.089112297 -0.64497942 1.9830872
0.11126971 -0.64374608 1.9831821
0.13001657 -0.64361018 1.9850003
0.14977086 -0.6478498 1.9865716
0.1701358 -0.64502513 1.9865383
0.19063623 -0.64647996 1.9877199
0.2095613 -0.64715683 1.9889998
0.22993109 -0.64624661 1.987
0.24809782 -0.64323545 1.983667
0.27439493 -0.64083368 1.9810001
0.290025 -0.64430702 1.9810005
0.30931869 -0.64248294 1.9831821
0.3303155 -0.64412683 1.9855716
0.34672105 -0.64238149 1.987462
-0.97318858 -0.63772678 1.9930003
-0.42456883 -0.63597959 1.9930003
-0.41350323 -0.63656205 1.9930003
-0.311001 -0.63772678 1.9930001
-0.26033232 -0.63772678 1.9930001
-0.2568379 -0.63772678 1.9930001
-0.21665239 -0.63772678 1.9930001
-0.083865441 -0.63772678 1.9930001
0.094349891 -0.63721639 1.9890001
0.10961615 -0.63652134 1.9916668
0.12929256 -0.63772678 1.9930003
0.17355487 -0.63656205 1.9930003
0.23291475 -0.63503885 1.9930003
0.25041598 -0.63578886 1.9911541
0.27177975 -0.63487858 1.9867144
0.29036441 -0.6337148 1.9867144
0.30816376 -0.6337406 1.9882002
0.32672578 -0.63772678 1.9930003
0.35250029 -0.63695461 1.9906002
0.36986631 -0.63570809 1.9873532
0.38950673 -0.63454628 1.9875456
0.409486 -0.63237453 1.9891818
0.43051401 -0.63037539 1.9882002
0.45045629 -0.62743247 1.9880909
0.46874073 -0.62423563 1.9870001
0.48922122 -0.6264236 1.9895003
0.51087421 -0.62724966 1.9860529
0.52605963 -0.62360281 1.9870003
0.54357982 -0.62520361 1.9810001
0.53381419 -0.61418229 1.9890001
0.549366 -0.61037219 1.9854214
0.56557232 -0.60803843 1.981667
0.98192453 -0.59229964 1.9930001
-1.1010653 -0.66276002 2.016
-1.086578 -0.66706604 2.0063751
-1.0864738 -0.65177047 2.0083005
-1.0711782 -0.65168023 2.0077507
-1.0505279 -0.649979 2.009305
-1.0323346 -0.6448288 2.0065718
-1.0115154 -0.64256668 2.0081432
-0.99240685 -0.64226967 2.0050001
-0.96674412 -0.64156657 2.0050001
-0.95092475 -0.6427384 2.0050004
-0.92660099 -0.64234543 2.0098889
-0.91038603 -0.64367378 2.0094001
-0.88832927 -0.64887512 2.0076051
-0.87141842 -0.64733189 2.01072
-0.85014075 -0.64378357 2.0073164
-0.83058125 -0.64689064 2.0076668
-0.81054252 -0.64477253 2.0078697
-0.79068929 -0.64280301 2.0082355
-0.7696678 -0.64463997 2.008667
-0.75012869 -0.64788127 2.0110693
-0.72900438 -0.64878243 2.01105
-0.7094776 -0.64967322 2.0141666
-0.68900555 -0.64860642 2.0122068
-0.6694805 -0.64691085 2.0107203
-0.65086675 -0.64578378 2.0094004
-0.62914973 -0.64547276 2.0107038
-0.60998386 -0.64596176 2.0121498
-0.5909856 -0.6456694 2.0123334
-0.56993389 -0.6460095 2.0107896
-0.54921871 -0.64625591 2.0101337
-0.53094876 -0.64210051 2.0100772
-0.50830215 -0.64322716 2.0084743
-0.4903194 -0.64378315 2.0084741
-0.47035405 -0.64264202 2.0117695
-0.45079836 -0.64390743 2.0086672
-0.43591374 -0.64156657 2.0050001
-0.40427482 -0.64156657 2.0050001
-0.38829213 -0.6467405 2.0095296
-0.36961463 -0.64749247 2.010211
-0.35018265 -0.64384717 2.0083001
-0.33046415 -0.64280295 2.0082357
-0.30970967 -0.64226967 2.0050001
-0.2877177 -0.64332289 2.0061002
-0.27332497 -0.64420319 2.0050006
-0.24666624 -0.64215249 2.0050001
-0.23136811 -0.64291525 2.007539
-0.20749971 -0.64507908 2.0088828
-0.18988605 -0.64646339 2.0108933
-0.17140482 -0.64539927 2.0100002
-0.15174955 -0.6427384 2.0050004
-0.12831332 -0.6427384 2.0050004
-0.11023395 -0.6420688 2.0050001
-0.093158983 -0.64156663 2.0050001
-0.070001997 -0.64155978 2.0100002
-0.049916591 -0.643188 2.0058465
-0.029980505 -0.64543331 2.0116
-0.013799319 -0.6430279 2.008667
0.0099764662 -0.64156169 2.0086665
0.029881183 -0.64156657 2.0050001
0.051001754 -0.64261973 2.0061002
0.067965046 -0.64391029 2.0050006
0.082612686 -0.64156657 2.0050001
0.14944343 -0.64281809 2.008929
0.16522536 -0.64156657 2.0050001
0.19159113 -0.64156657 2.0050001
0.21186438 -0.64226669 2.0072002
0.33748162 -0.64156657 2.0050001
-1.0280817 -0.63758367 2.0132499
-1.0129333 -0.63611901 2.014308
-0.98839355 -0.63526475 2.0097146
-0.97090465 -0.63435876 2.0080004
-0.94916701 -0.63629341 2.0050006
-0.9292236 -0.6366871 2.0083852
-0.90778512 -0.63696337 2.0138001
-0.89274359 -0.63693726 2.0134618
-0.86600637 -0.63801694 2.016
-0.85010016 -0.63624954 2.0160003
-0.8313657 -0.63673472 2.0150001
-0.80989265 -0.63713324 2.016
-0.79000992 -0.63801694 2.016
-0.77088076 -0.63469011 2.0160003
-0.75516772 -0.63549221 2.016
-0.70694399 -0.63801694 2.016
-0.68396831 -0.63801694 2.0160003
-0.66904396 -0.63644588 2.016
-0.65119189 -0.6364103 2.0160003
-0.6362496 -0.63801694 2.016
-0.57615936 -0.63801694 2.016
-0.50193024 -0.63801694 2.016
-0.44614956 -0.63802266 2.0141668
-0.42999163 -0.63530505 2.0074446
-0.41026956 -0.63714904 2.0114169
-0.39571622 -0.63702178 2.0112858
-0.34993729 -0.63801694 2.016
-0.33579838 -0.63801694 2.016
-0.30992067 -0.63745379 2.008667
-0.29090452 -0.63701677 2.0128574
-0.27042213 -0.6367076 2.0111878
-0.25021222 -0.63657987 2.0108237
-0.22829543 -0.63273787 2.0117223
-0.21356554 -0.63429868 2.0114708
-0.1908749 -0.63801694 2.016
-0.16966657 -0.63801694 2.016
-0.14995237 -0.63685006 2.0123339
-0.13148874 -0.63752663 2.0112863
-0.10904281 -0.63534379 2.010762
-0.089837708 -0.63592184 2.0094006
-0.072773769 -0.63695997 2.0149002
-0.048486054 -0.63421261 2.01248
-0.030045122 -0.63801694 2.016
-0.0086104563 -0.63603503 2.0139377
0.012354646 -0.63714182 2.0132504
0.029990476 -0.63685012 2.0123339
0.049645346 -0.63533705 2.0123336
0.070244476 -0.63395864 2.0109229
0.089929447 -0.63574618 2.0114706
0.10995345 -0.63236022 2.0102611
0.13045099 -0.63285559 2.0108669
0.15199646 -0.63723904 2.0135555
0.17004971 -0.6345126 2.0095298
0.19009376 -0.63363862 2.0077503
0.20904967 -0.63714468 2.0123336
0.22930188 -0.63221616 2.0105002
0.25005546 -0.63099498 2.008667
0.26909903 -0.6334011 2.0111876
0.28997293 -0.63099951 2.0081429
0.31049046 -0.63073719 2.0116005
0.32928652 -0.6365791 2.0068336
0.35074425 -0.63338256 2.0105004
0.37016687 -0.62934995 2.0093217
0.39049798 -0.62577426 2.0080349
0.40947711 -0.62428522 2.0070004
0.42916563 -0.62460792 2.0078523
0.44837782 -0.62280887 2.005734
0.46981257 -0.62097621 2.0050001
0.49241176 -0.62198055 2.0050001
0.50850552 -0.62312746 2.0070958
0.52204186 -0.62223172 2.0050001
0.40575349 -0.61685866 2.0123334
0.45085248 -0.61335278 2.0105002
0.47163391 -0.61069512 2.0111876
0.48784235 -0.60944206 2.0064352
0.50997663 -0.61032343 2.0121174
0.52963519 -0.60880274 2.0050008
0.96674591 -0.59383297 2.016
0.99080789 -0.59519166 2.0146248
-1.1076193 -0.66314924 2.0280001
-1.1040636 -0.65129673 2.0280001
-1.0895171 -0.64472395 2.0280001
-1.0715537 -0.64943421 2.0280001
-1.0536902 -0.6435926 2.0280001
-0.88182849 -0.64181465 2.0280001
-0.79471236 -0.64181465 2.0280001
-0.74730223 -0.64418519 2.0280001
-0.72844595 -0.64375418 2.0280001
-0.70866293 -0.64323699 2.0280001
-0.69752163 -0.64299989 2.0280004
-0.62759161 -0.64181465 2.0280001
-0.60981286 -0.64181465 2.0280001
-0.59203404 -0.64181465 2.0280001
-0.5663535 -0.64497536 2.0280001
-0.5506984 -0.64314806 2.0280001
-0.52980828 -0.64181471 2.0280001
-0.5138073 -0.64181465 2.0280004
-0.49069488 -0.64181471 2.0280001
-0.46936032 -0.64181471 2.0280001
-0.38681588 -0.64435452 2.0280001
-0.37236708 -0.64418519 2.0280001
-0.32890782 -0.64181465 2.0280004
-1.0429045 -0.63683665 2.0280001
-1.030973 -0.63391298 2.0280001
-1.0098358 -0.63588846 2.0280001
-0.9914645 -0.63174003 2.0280001
-0.97338927 -0.63381422 2.0280001
-0.94563466 -0.63628352 2.0280001
-0.93135512 -0.63622707 2.0280001
-0.91205245 -0.63399202 2.0280001
-0.88913757 -0.63470316 2.0280001
-0.86938334 -0.63648105 2.0280001
-0.85871601 -0.63470316 2.0280001
-0.83560359 -0.63825893 2.0280001
-0.80893534 -0.63692552 2.0280001
-0.78912479 -0.63571912 2.0280001
-0.77337784 -0.63233268 2.0280004
-0.74990982 -0.63683665 2.0280001
-0.72715294 -0.63825893 2.0280001
-0.70828003 -0.63497669 2.0280001
-0.69030237 -0.63664269 2.0280001
-0.66907549 -0.63411057 2.0280001
-0.65070409 -0.63470316 2.0280001
-0.62759161 -0.6370737 2.0280001
-0.61123508 -0.6357699 2.0280001
-0.5906117 -0.6354143 2.0280001
-0.57662576 -0.6370737 2.0280004
-0.54936498 -0.63692552 2.0280001
-0.53057021 -0.63775098 2.0280001
-0.50960505 -0.63599616 2.0280001
-0.49344251 -0.63599616 2.0280001
-0.46639726 -0.63446623 2.0280001
-0.4501 -0.63144368 2.0280001
-0.42918032 -0.63375503 2.0280001
-0.40956742 -0.63301879 2.0280001
-0.39380041 -0.6355921 2.0280001
-0.36357647 -0.63736999 2.0280001
-0.35024238 -0.63648105 2.0280001
-0.33187091 -0.63766634 2.0280001
-0.30935115 -0.63766634 2.0280001
-0.28821412 -0.63470316 2.0280001
-0.27023777 -0.63292527 2.0280001
-0.24752042 -0.63134491 2.0280001
-0.23063953 -0.62856138 2.0280001
-0.20978981 -0.63233268 2.0280001
-0.19112211 -0.6355921 2.0280001
-0.17067647 -0.6347031 2.0280001
-0.15076423 -0.63328087 2.0280001
-0.12927727 -0.63673508 2.0280001
-0.11200645 -0.63470316 2.0280004
-0.089960732 -0.63470316 2.0280001
-0.067813426 -0.63622707 2.0280001
-0.049780641 -0.6293695 2.0280001
-0.030223962 -0.6347031 2.0280001
-0.011608512 -0.63114738 2.0280001
0.010199419 -0.63264465 2.0280001
0.030026419 -0.62996227 2.0280001
0.049272671 -0.63013148 2.0280001
0.069337323 -0.62794721 2.0280001
0.089249581 -0.63043624 2.0280001
0.11006694 -0.62791491 2.0280001
0.12978525 -0.62581372 2.0280001
0.15013209 -0.63213521 2.0280001
0.16978753 -0.63070285 2.0280001
0.19023316 -0.6293695 2.0280001
0.21038245 -0.63280684 2.0280001
0.22737108 -0.62956703 2.0280001
0.25157005 -0.62759167 2.0280001
0.26972979 -0.62860757 2.0280001
0.29030243 -0.63089347 2.0280001
0.31024012 -0.62536931 2.0280001
0.33054888 -0.63497669 2.0280001
0.34810892 -0.63114738 2.0280001
0.36881134 -0.62522107 2.0280001
0.38876307 -0.62166536 2.0280001
0.40891239 -0.62048012 2.0280001
0.43024695 -0.62048012 2.0280001
0.39646724 -0.61692435 2.0280001
0.40802345 -0.6160354 2.0280001
0.43024698 -0.61550206 2.0280001
0.44861847 -0.610524 2.0280001
0.46504265 -0.61133671 2.0280001
0.93338698 -0.58492249 2.0280001
0.97463381 -0.59558982 2.0280001
0.99067432 -0.59479964 2.0280001
1.0027243 -0.59203404 2.0280001
-1.11775 -0.66349638 2.0400002
-1.1221089 -0.64856082 2.0443337
-1.1136912 -0.64779127 2.0408673
-1.0892664 -0.64333779 2.0448751
-1.0720741 -0.64585173 2.0407653
-1.0569444 -0.64382398 2.0400002
-0.96573603 -0.6420356 2.0400002
-0.88883477 -0.6420356 2.0400002
-0.84950399 -0.6425274 2.0530002
-0.83330584 -0.6425274 2.0530002
-0.74990463 -0.64228153 2.0465002
-0.73741692 -0.64322793 2.0400004
-0.56990349 -0.64322782 2.0400002
-0.38379064 -0.64346641 2.0400002
-0.37556398 -0.6420356 2.0400002
-0.33443078 -0.6420356 2.0400002
-1.122103 -0.63389319 2.0457778
-1.1113091 -0.63762373 2.0501113
-1.0900271 -0.6363945 2.0513752
-1.0687426 -0.6337021 2.0513048
-1.0496213 -0.62954885 2.047704
-1.0294614 -0.6267938 2.0475492
-1.0098938 -0.62830549 2.0473673
-0.98964036 -0.62794083 2.0470912
-0.96908963 -0.63090611 2.0442066
-0.95014668 -0.62791967 2.0465009
-0.93103153 -0.63175815 2.0474856
-0.90999401 -0.63167614 2.0470424
-0.8886618 -0.63185114 2.0485008
-0.87114507 -0.63462025 2.0488949
-0.84901065 -0.63573396 2.0506368
-0.82925814 -0.63462073 2.0507395
-0.80996293 -0.6331948 2.0501745
-0.79188442 -0.63234204 2.046118
-0.77061766 -0.63306004 2.0475268
-0.7495811 -0.63773185 2.048357
-0.72853357 -0.63442999 2.0434215
-0.70828116 -0.63208526 2.0470004
-0.69048804 -0.63505363 2.0450006
-0.67015237 -0.63455212 2.0494547
-0.6482619 -0.63510323 2.0465007
-0.62923807 -0.63128203 2.0474291
-0.61035937 -0.63161719 2.0497503
-0.58835196 -0.62918705 2.0486674
-0.57092655 -0.63534963 2.0479448
-0.55043668 -0.63108122 2.0443339
-0.52890843 -0.63163269 2.0469069
-0.50970089 -0.62888294 2.0459096
-0.4890103 -0.63109374 2.0447674
-0.47081983 -0.62601399 2.0427091
-0.44910744 -0.62395966 2.0447278
-0.42960227 -0.62477028 2.0425005
-0.41017583 -0.62653118 2.0441055
-0.38992205 -0.63250852 2.0478008
-0.3704299 -0.62885988 2.0465007
-0.34976089 -0.62857407 2.0478008
-0.33006456 -0.6328463 2.0458281
-0.30985102 -0.62937069 2.0470579
-0.28995904 -0.62617034 2.0420973
-0.27000996 -0.62550849 2.0457783
-0.25147429 -0.62474453 2.0445223
-0.23118986 -0.62248147 2.0443337
-0.21135043 -0.62806731 2.0455718
-0.19012029 -0.63141286 2.0486672
-0.16926847 -0.62943965 2.0476475
-0.1490123 -0.62865937 2.0480008
