# .PCD v0.7 - Point Cloud Data file format
VERSION 0.7
FIELDS x y z rgb
SIZE 4 4 4 4
TYPE F F F F
COUNT 1 1 1 1
WIDTH 737
HEIGHT 1
VIEWPOINT 0 0 0 1 0 0 0
POINTS 737
DATA ascii
0.9645437 -0.19835702 3.2094543 1.6224989e-38
0.77452952 -0.11174464 3.4539528 1.7699392e-38
0.79174274 -0.12966874 3.4019687 1.7423168e-38
0.83897936 -0.17412557 3.2733178 1.7054388e-38
0.99840891 -0.24229679 3.0814958 1.530303e-38
1.0572898 -0.29846936 2.918891 1.4565103e-38
0.85406864 -0.23435719 3.0959511 1.6316823e-38
0.86146045 -0.29619843 2.9133353 1.5671814e-38
0.62067688 -0.033125844 3.6770539 1.6958926e-38
0.47048131 0.028344974 3.8496182 1.4744406e-38
0.46151084 -0.023848822 3.6945381 1.5667813e-38
0.35440373 0.019691145 3.816721 1.4375614e-38
0.293751 -0.022185508 3.6889434 1.3731342e-38
0.046321165 -0.032041162 3.644253 6.4500689e-39
0.66446042 -0.093379773 3.5014195 1.751427e-38
0.65131664 -0.12739314 3.3999007 1.7330243e-38
0.65926081 -0.16542332 3.287812 1.7238411e-38
0.4603993 -0.087450445 3.5061793 1.6407194e-38
0.39829177 -0.12283672 3.3975248 1.613133e-38
0.51787782 -0.12447479 3.4001737 1.6961095e-38
0.46093938 -0.16141808 3.2872345 1.6592315e-38
0.66564935 -0.23240714 3.0899093 1.5856199e-38
0.65969938 -0.29370785 2.9080572 1.2905942e-38
0.47203264 -0.22517814 3.0991704 1.6132421e-38
0.49438462 -0.29248261 2.9013197 1.4104841e-38
0.28567499 -0.082928613 3.5086091 1.4562196e-38
0.30028877 -0.12093379 3.3970134 1.5300848e-38
0.29562363 -0.15292592 3.3020089 1.4564362e-38
0.0052965535 -0.086709373 3.4798369 6.2667623e-39
0.00081450911 -0.11538932 3.3946502 7.4656684e-39
0.048377138 -0.15777738 3.2721446 8.2957906e-39
0.22798803 -0.22975375 3.070323 9.6798139e-39
0.25385287 -0.29131681 2.8896894 1.1431166e-38
0.059575364 -0.22075804 3.0863945 1.0692873e-38
0.066668995 -0.2860207 2.8936322 1.1891783e-38
0.060183972 -0.32258931 2.7849655 1.1891786e-38
1.0713099 -0.33004078 2.8263042 1.4288156e-38
0.85224521 -0.32921141 2.8150241 1.5487062e-38
0.66293401 -0.32591438 2.8129146 1.4379988e-38
1.2375787 -0.39114931 2.6558204 1.2536438e-38
1.2067745 -0.44184256 2.5038133 1.2260212e-38
1.1738771 -0.48439127 2.375787 1.1799596e-38
1.0522543 -0.37301362 2.6978898 1.4103765e-38
1.0623165 -0.44395134 2.488513 1.3181807e-38
0.8606391 -0.37137398 2.6907306 1.484169e-38
0.86453229 -0.43869248 2.4916799 1.3643144e-38
1.0599414 -0.49896118 2.3255103 1.1983984e-38
1.039502 -0.53176826 2.2271044 1.124714e-38
1.0278661 -0.55597782 2.1547034 1.0509573e-38
0.90709853 -0.48957172 2.3437235 1.2537154e-38
0.88227904 -0.53041649 2.2212479 9.8634807e-39
0.81926566 -0.57999641 2.0705173 9.4006934e-39
0.84959006 -0.63664532 1.9047128 1.0505956e-38
0.83166623 -0.68179476 1.7699252 1.11506e-38
0.69128132 -0.35994643 2.7139423 1.5118274e-38
0.62889487 -0.4383595 2.4778914 9.8631219e-39
0.4412145 -0.36577106 2.6810186 1.0324459e-38
0.46171373 -0.42873803 2.4958932 1.1798141e-38
0.63953561 -0.49525049 2.3101349 1.0691795e-38
0.68814349 -0.52674752 2.2199373 1.0506682e-38
0.66037422 -0.56687862 2.09939 1.1704142e-38
0.46339953 -0.49230513 2.3078101 1.2073285e-38
0.44553357 -0.52501798 2.2098453 1.1888532e-38
0.4609994 -0.56256723 2.0996525 1.1980724e-38
0.25993943 -0.35514221 2.7011189 1.2444234e-38
0.25930145 -0.42504191 2.4941435 1.2350955e-38
0.065090574 -0.35410258 2.6919789 1.1891785e-38
0.094370075 -0.41628772 2.5097191 1.2075453e-38
0.26662794 -0.49070251 2.3002179 1.2258036e-38
0.31179231 -0.55279589 2.1192243 1.2165475e-38
0.12675977 -0.46743718 2.3603234 1.2167284e-38
0.66211545 -0.63410389 1.9004803 1.1980361e-38
0.66035408 -0.67701888 1.7733222 1.2440974e-38
0.4771297 -0.62893116 1.9041961 1.2348782e-38
0.50626284 -0.67388314 1.7729441 1.3362208e-38
0.35930285 -0.60641795 1.9634573 1.124423e-38
0.010629369 -0.63239384 1.8646941 1.1705577e-38
0.047997668 -0.66823584 1.7609292 1.1797048e-38
-0.15165737 -0.037938662 3.6143794 2.7550649e-40
-0.14249907 -0.075502284 3.5037484 6.0823682e-39
-0.14700526 -0.11674369 3.381372 1.004714e-38
-0.12756272 -0.15382597 3.2728109 1.0047503e-38
-0.33192089 -0.082527563 3.4710743 2.5789441e-39
-0.3449612 -0.11373875 3.377856 7.8333593e-39
-0.35562295 -0.15426737 3.2572043 8.9404327e-39
-0.13730012 -0.2160002 3.0881362 1.1246775e-38
-0.11276791 -0.28171185 2.8951373 1.189251e-38
-0.31117657 -0.20865865 3.0989678 1.050921e-38
-0.24079116 -0.25978422 2.9520261 1.2169467e-38
-0.49714097 -0.098144695 3.4144804 1.0134289e-39
-0.5132941 -0.11467104 3.3645418 1.4740497e-39
-0.48397547 -0.12879385 3.3245697 3.9625974e-39
-0.60864663 -0.28361189 2.8584204 1.0973445e-38
-0.78211629 -0.20289093 3.0865154 5.3466151e-39
-0.74166119 -0.26906028 2.8931596 9.4975904e-39
-0.88437283 -0.20757875 3.0662255 2.1197764e-39
-0.93764108 -0.26471737 2.893728 6.6388e-39
-1.0811665 -0.26771405 2.8758578 3.3197573e-39
-1.2465 -0.28390741 2.8175514 3.5873241e-43
-0.088117674 -0.31927624 2.7854753 1.1800676e-38
-0.58033544 -0.31498975 2.7673025 1.1988687e-38
-0.74762094 -0.31215009 2.7652206 1.1435872e-38
-0.94657576 -0.31138417 2.7550135 9.4997526e-39
-1.1452811 -0.30733562 2.7545395 6.0863465e-39
-1.2824051 -0.3082096 2.7433543 2.3985227e-39
-0.074647315 -0.34583968 2.7076797 1.189251e-38
-0.4309327 -0.37227011 2.607094 1.2448942e-38
-0.3891001 -0.41737527 2.4761853 1.1895044e-38
-0.20822732 -0.50143915 2.2386582 1.1984707e-38
-0.18692978 -0.51887441 2.1883771 1.1984346e-38
-0.15351117 -0.55716276 2.077121 1.1707753e-38
-0.33985832 -0.47820514 2.2991877 1.1616649e-38
-0.34483308 -0.51740032 2.1828403 1.1709205e-38
-0.34080568 -0.55373055 2.0755389 1.1340421e-38
-0.550161 -0.34815061 2.6710231 1.2450025e-38
-0.53931844 -0.40774348 2.495281 1.2357472e-38
-0.7378 -0.34450597 2.6700485 1.1990492e-38
-0.7363444 -0.4032445 2.4962471 1.2083769e-38
-0.5347051 -0.47700918 2.2905116 1.005113e-38
-0.54778546 -0.51659811 2.1724901 1.1066005e-38
-0.53918195 -0.54970837 2.0750074 1.0605386e-38
-0.74328244 -0.47036907 2.2970922 1.1161454e-38
-0.73068416 -0.51400787 2.1686902 8.3934093e-39
-0.74216062 -0.54858392 2.0656097 9.5019218e-39
-0.13855018 -0.6188373 1.8954751 1.1153855e-38
-0.13873632 -0.66551995 1.7572604 1.0785066e-38
-0.34026226 -0.61386454 1.8975488 1.0418462e-38
-0.34013903 -0.66111547 1.7576718 9.7730885e-39
-0.54147869 -0.60946202 1.8979658 9.4990337e-39
-0.53765905 -0.65802646 1.7544323 8.7614631e-39
-0.73722595 -0.60626674 1.8951511 8.5792425e-39
-0.74057096 -0.65576309 1.74841 7.3796105e-39
-0.9390583 -0.34420785 2.6583111 1.0885219e-38
-0.94024712 -0.39934418 2.4950089 1.1808985e-38
-1.1353127 -0.34159985 2.6537268 8.3941239e-39
-1.1396518 -0.3950195 2.4953079 1.070335e-38
-0.93850476 -0.46483782 2.3012257 1.1440922e-38
-0.94741338 -0.51194507 2.1612086 1.0795191e-38
-0.93938738 -0.54555148 2.0622206 9.7813968e-39
-1.1329175 -0.46109691 2.3001106 1.1628197e-38
-1.1024386 -0.5068841 2.166471 1.0522572e-38
-1.074559 -0.53959107 2.0713909 9.8772064e-39
-1.290701 -0.34488717 2.6342521 6.2721783e-39
-1.3100863 -0.38760713 2.5065663 8.3055366e-39
-1.2655342 -0.43711486 2.3627934 1.117083e-38
-0.92340493 -0.59678364 1.9115529 7.5668954e-39
-0.87519127 -0.65005028 1.7568821 6.1843211e-39
0.46547312 0.80253267 2.3002186 9.6819901e-39
0.64791644 0.73860967 1.9671314 1.0050417e-38
0.54050052 0.78837854 2.1580126 9.3132118e-39
0.61629492 0.76347876 2.0189202 9.1280974e-39
0.44345009 0.53856444 2.4575047 1.1340794e-38
0.48836336 0.61212981 2.3370237 1.1154938e-38
0.45961401 0.39722291 2.4864624 1.1892523e-38
0.5268234 0.41917932 2.3441489 1.1984719e-38
0.64228225 0.54636139 2.0611148 1.1525185e-38
0.67914599 0.59429735 1.9675893 1.0141525e-38
0.66007632 0.4039503 2.0873108 1.1615205e-38
0.72627878 0.41697323 1.9508375 1.096983e-38
0.57962614 0.62149614 2.1525891 1.023263e-38
0.62952292 0.68429989 2.0268934 1.0327361e-38
0.60560656 0.42584175 2.1855483 1.1707762e-38
0.84545135 0.35674292 1.7412255 1.0416673e-38
0.80522412 0.59960282 1.7160852 9.3121258e-39
0.79680526 0.42017543 1.8100482 1.032013e-38
0.45655572 0.001292646 2.6631279 1.3457318e-38
0.44788256 -0.28101623 2.8019285 1.2630789e-38
0.49838787 -0.3158046 2.7170866 1.2262015e-38
0.85577589 -0.0073592793 1.8777208 1.0505976e-38
0.87683833 -0.17794479 1.9095976 9.3081461e-39
0.64056975 0.12176435 2.2474732 1.1614126e-38
0.65426469 -0.010207087 2.2772739 1.041594e-38
0.48220786 0.21363537 2.5209162 1.1707766e-38
0.57026076 0.2218425 2.3433261 1.1707046e-38
0.51126665 0.041681491 2.5375762 1.1062034e-38
0.604096 0.038608428 2.3554056 1.0600694e-38
0.68085796 0.21061951 2.1295445 1.142974e-38
0.77214789 0.21718197 1.9462647 1.0968762e-38
0.7130605 0.022553654 2.146935 1.1060592e-38
0.80108106 0.027189355 1.9709475 1.0875121e-38
0.62519455 0.25776252 2.219259 1.1614851e-38
0.66821879 -0.10622678 2.2910693 9.3110426e-39
0.6457324 -0.39929035 2.4618089 1.2170906e-38
0.71014315 -0.43762448 2.3510082 9.6798181e-39
0.62865782 -0.096866541 2.3652351 1.4381801e-38
0.58772206 -0.3642931 2.5613956 1.2998861e-38
0.75512773 -0.13670518 2.132411 8.7564198e-39
0.82080996 -0.13749045 2.0029159 9.2163148e-39
0.78605449 -0.47597843 2.217483 8.6645759e-39
0.85424459 0.19771418 1.7923746 1.0323031e-38
0.87532169 0.035799857 1.8204865 1.0321582e-38
0.90052301 -0.12218759 1.8387532 1.0045355e-38
0.82510108 0.26193011 1.8223093 1.0600342e-38
0.85983849 -0.52241665 2.0916464 7.9266522e-39
0.92410541 -0.57281882 1.9863306 7.4656684e-39
0.81592846 -0.49196312 2.1653197 8.2032404e-39
0.10240681 1.1232183 2.8796945 2.341805e-38
0.12369114 1.1202537 2.8388996 1.4014464e-38
-0.066903763 1.1709566 3.1937966 6.3607642e-39
-0.037206516 0.37918746 3.4762955 8.3861716e-39
0.24905628 0.95950633 2.660363 7.930629e-39
0.26471817 0.80428582 2.6962945 9.4064836e-39
0.12002189 1.0078275 2.8946009 1.2632249e-38
0.18823691 1.0106512 2.7585442 7.1927011e-39
0.14904265 0.82015443 2.9181108 9.1284492e-39
0.21026538 0.83463961 2.7908499 8.8525881e-39
0.12338241 0.44894567 3.1287997 1.8623876e-38
0.24094006 0.53099227 2.8610678 1.0696141e-38
0.28565177 0.61736602 2.735465 1.0696501e-38
0.25435996 0.42004222 2.8823526 1.0787613e-38
0.32380831 0.4214282 2.7444775 1.1340428e-38
0.17748243 0.6274665 2.9449301 9.3132034e-39
0.22616711 0.67750853 2.8271298 9.9592958e-39
0.22200455 0.44783667 2.9343321 1.0418831e-38
-0.049121182 0.92880577 3.2629974 8.2954333e-39
-0.051872745 1.0320415 3.2239487 6.2678483e-39
-0.043280188 0.8170014 3.2996318 7.4656656e-39
-0.037201852 0.9149195 3.2454209 8.1106819e-39
-0.036305439 0.61120659 3.3745294 8.3879722e-39
-0.037397403 0.4751913 3.4353015 8.662041e-39
0.29896295 0.97050393 2.5569732 7.5607563e-39
0.3919988 0.93438482 2.3886352 7.5607507e-39
0.3397409 0.81987256 2.5412803 9.312839e-39
0.4105016 0.83356637 2.3955071 9.1284534e-39
0.37740389 0.62117517 2.5524588 1.1157482e-38
0.42861891 0.67463505 2.428184 1.0696145e-38
0.40664279 0.43627614 2.5743411 1.1617017e-38
0.055219091 -0.056891091 3.4815202 7.4656656e-39
-0.028667951 0.22381641 3.5263722 8.2024978e-39
-0.016571382 0.035149194 3.5837641 7.5571255e-39
0.17832644 0.16308695 3.1433785 8.8489518e-39
0.088675812 -0.070153549 3.4211013 7.7422483e-39
0.18617029 0.01970139 3.1896636 8.7553114e-39
0.27793467 0.24203324 2.9124632 1.0233716e-38
0.36227506 0.25378832 2.7406828 1.1524096e-38
0.29919711 0.091972888 2.9351003 1.0506686e-38
0.39233923 0.04432907 2.771518 9.5854532e-39
0.27176818 -0.17512265 3.1044192 1.1983972e-38
0.18042263 -0.11980931 3.2611446 7.83406e-39
0.20686218 -0.13028601 3.213397 9.2170126e-39
0.36198282 -0.22865863 2.949163 1.2261283e-38
0.43084639 -0.26852736 2.8302219 1.2722267e-38
0.43624741 -0.2845321 2.826443 1.281518e-38
0.42264968 0.2611776 2.618156 1.1615933e-38
0.023790482 1.1615047 3.3751807 1.1071788e-38
0.07630413 1.087033 3.4464486 2.0562155e-38
-0.24778405 1.1720673 3.1404102 1.1052587e-39
-0.1531409 0.91318244 3.3133838 1.1978117e-39
-0.23291479 0.99239111 3.2172365 1.5658782e-39
0.028226055 0.77572358 3.5167513 9.0431185e-39
-0.20867179 0.77096957 3.316947 1.6577095e-39
-0.26019403 0.81624717 3.2569499 1.7495478e-39
-0.24532609 0.60334742 3.3456421 2.0261318e-39
-0.29839346 1.1645411 3.1000509 2.3034488e-39
-0.31758282 0.98728758 3.1470416 1.473321e-39
-0.34732938 0.80839473 3.1856389 1.5655166e-39
-0.2964769 0.56485671 3.3158827 1.8421007e-39
-0.40527779 0.61631995 3.2049553 1.4736825e-39
-0.47869095 0.73159677 3.1013362 1.1981746e-39
-0.50723892 0.60040575 3.1239142 1.2896528e-39
-0.41816074 1.1317325 3.0098975 8.29039e-40
-0.4234255 1.0383844 3.0387626 6.4464354e-40
-0.51335466 1.1353663 2.927629 0
-0.56948864 1.1367717 2.8793797 0
-0.54220283 1.006035 2.9492869 2.7622395e-40
-0.63835073 1.0343806 2.8573799 3.5873241e-43
-0.46299541 0.84779853 3.0731804 1.0134247e-39
-0.57242996 0.81306493 2.9925032 1.0130673e-39
-0.66256166 0.8907482 2.8880904 5.5281084e-40
-0.60236484 0.61811757 3.0366745 1.2900157e-39
-0.21301892 0.19241354 3.5199041 2.0257689e-39
-0.21800882 0.38611993 3.4464698 2.3023544e-39
-0.24797627 0.25895962 3.4664009 2.2108762e-39
-0.24411869 0.034231037 3.5499527 1.4729595e-39
0.061024155 1.3286836 3.3471365 1.7889584e-38
-0.33125541 0.39864364 3.3456705 2.210879e-39
-0.42579743 0.4203428 3.2575035 1.8421021e-39
-0.37039337 0.20475748 3.3816338 2.1183247e-39
-0.45635033 0.28302991 3.2805629 2.2105231e-39
-0.55217898 0.39383885 3.1594725 1.565881e-39
-0.48840162 0.14247344 3.3035059 1.8421007e-39
-0.58241123 0.22244419 3.194978 1.7502722e-39
-0.30003336 0.020938553 3.5071402 1.4733196e-39
-0.39668983 0.028799925 3.4221177 1.4729595e-39
-0.49666765 0.0087815616 3.3442283 1.3807652e-39
-0.62206465 0.06526839 3.2173913 1.2896556e-39
-0.54094821 -0.10180113 3.3460629 1.5684019e-39
-0.64231396 0.44006351 3.0662935 1.4740497e-39
-0.66859019 0.30861929 3.090894 1.5673201e-39
-0.75342518 0.96969712 2.7826037 2.7766028e-40
-0.95541042 0.94083631 2.6211069 7.7465951e-39
-0.69363838 0.74826139 2.9125521 1.0137918e-39
-0.78362983 0.81510586 2.8121309 8.2975927e-40
-0.72837949 0.59943098 2.9361629 1.4747685e-39
-0.81569332 0.6412881 2.8469441 1.566967e-39
-0.90214294 0.78949857 2.7204714 1.291099e-39
-0.93146008 0.60392267 2.761821 3.8736612e-39
-0.95765615 0.83320338 2.6576419 5.8097694e-39
-0.98548985 0.697492 2.6824415 1.4293939e-38
-0.69987106 0.1869846 3.107734 1.5662467e-39
-0.70922762 0.075374812 3.139641 1.2896668e-39
-0.81196964 -0.14123155 3.1296201 1.0141575e-39
-0.76049042 0.40903497 2.9768569 1.7509995e-39
-0.85318983 0.46459982 2.8781612 2.3045362e-39
-0.78018206 0.23187649 3.0233886 1.6591654e-39
-0.88181859 0.33306575 2.9007931 2.120868e-39
-0.93982404 0.41618097 2.8217666 4.1506124e-39
-0.91667062 0.19711344 2.9197094 2.1212254e-39
-0.98234355 0.20862742 2.8597353 6.9179261e-39
-0.82281178 0.011900605 3.0657008 2.2134238e-39
-0.85815024 -0.10999823 3.0791836 9.2123883e-40
-0.96048611 -0.0058725686 2.9549451 1.5676928e-39
-1.0424486 0.048719067 2.8657291 1.8460818e-39
-0.98385042 -0.14691891 2.9854515 6.4537361e-40
-1.0710741 -0.096982919 2.893424 1.2911074e-39
-1.1088195 0.12139463 2.7833164 1.5680126e-38
-1.1664931 0.0089149075 2.774436 2.4918156e-39
-1.0913544 -0.1840862 2.9072864 4.6134249e-40
-1.1870605 -0.16338043 2.8184843 6.4717568e-40
-1.2798307 -0.069670409 2.7061028 1.3861841e-39
-1.3067878 -0.20102623 2.7300932 4.6278582e-40
-1.2609392 0.05696287 2.6769392 6.0896115e-39
-1.3406013 0.00074756192 2.6292598 3.9691064e-39
-1.38831 -0.19338073 2.6580198 5.5606326e-40
0.6927979 0.74241501 1.9341166 9.2213651e-39
0.58503371 0.82413709 2.0928528 6.0831221e-39
0.72608095 0.63393015 1.9146111 9.311051e-39
0.76259857 0.42065111 1.9266334 1.0970151e-38
0.83105248 0.58436179 1.7493364 8.0224533e-39
0.84809548 0.42104742 1.7775639 1.0137552e-38
0.75942492 0.71638721 1.8272872 9.0355319e-39
0.7854237 0.62114125 1.8157759 8.7603911e-39
0.8073898 0.49287307 1.822999 9.6791202e-39
0.41633287 0.037223682 2.6657748 1.0323383e-38
0.41664869 -0.28346053 2.7789464 1.1340774e-38
0.4541145 -0.32068878 2.7268858 9.771292e-39
0.8729111 -0.24818312 1.9716613 1.3274712e-38
0.63316607 -0.026952978 2.3108261 1.0968753e-38
0.43375894 0.15553141 2.5934651 1.1338985e-38
0.54217345 0.14934188 2.4068103 1.1707046e-38
0.48502177 0.029401688 2.5488975 9.6798139e-39
0.571365 -0.0088427821 2.4120562 1.0324823e-38
0.6918149 -0.063059449 2.2214684 1.0876192e-38
0.61798501 -0.40029389 2.4696655 1.0140436e-38
0.67139757 -0.43299249 2.3882203 8.5716684e-39
0.56187147 -0.37178808 2.5573022 1.0600325e-38
0.71850872 -0.1406257 2.2024765 1.2352425e-38
0.77788746 -0.47772628 2.2185864 8.2028803e-39
0.85343999 0.25288093 1.8278898 1.0691818e-38
0.82204872 -0.50211239 2.1503088 7.7419022e-39
0.92190111 -0.56243289 1.9977646 7.6507855e-39
0.80004197 -0.51439929 2.1930003 8.0181261e-39
0.11059432 1.1112725 2.8174663 2.3509886e-38
-0.10171899 1.1512102 3.1731372 9.2231083e-40
-0.11863829 0.38029319 3.4759946 1.0130617e-39
0.087123796 0.91373849 2.9284 2.3509886e-38
0.14434475 0.98379987 2.80388 4.7956133e-39
0.10948149 0.76717937 2.9414279 1.4843858e-38
0.18730868 0.76506537 2.8066084 9.2206504e-39
0.10228695 0.39046255 3.0875528 1.3737506e-38
0.26267192 0.54532623 2.7532558 1.0696502e-38
0.22548229 0.34213266 2.8900948 1.0786891e-38
0.28020206 0.35672832 2.7896006 1.1156036e-38
0.13340294 0.59801555 2.959748 1.2354579e-38
0.19654027 0.60079616 2.8487811 9.9585756e-39
0.1609011 0.41513005 2.9767039 9.4972303e-39
-0.1135712 0.91819686 3.2764149 3.6949438e-40
-0.10385789 1.0112042 3.2265122 2.7694422e-40
-0.11402783 0.81365019 3.3142848 4.6061521e-40
-0.078380153 0.86790943 3.2329476 3.3179539e-39
-0.10790201 0.59439385 3.3813674 5.5280944e-40
-0.11415534 0.47258797 3.4354551 8.2867326e-40
0.40915167 0.9025141 2.3714323 8.4845273e-39
0.39000934 0.34265167 2.6033168 1.1800326e-38
-0.10497587 0.20552148 3.5141737 9.2123043e-40
-0.09945906 0.028430184 3.5673642 8.290376e-40
0.11571627 0.20242466 3.1308422 7.1912479e-39
0.083749421 -0.033597998 3.2702253 9.0329745e-39
0.11430018 0.01387288 3.2001739 6.9128548e-39
0.23890877 0.19213831 2.9198978 9.4039472e-39
0.32800013 0.18017705 2.7689486 1.0786884e-38
0.27049109 0.090420566 2.9009552 8.8493329e-39
0.35832694 0.072592959 2.7542737 8.3894352e-39
0.18240546 0.22396442 3.0070364 8.9429677e-39
0.22530483 -0.18995647 3.0790949 8.4809105e-39
0.068494484 -0.11717884 3.326438 6.7288278e-39
0.15840635 -0.14764783 3.1806231 7.0054105e-39
0.30217993 -0.23495704 2.9611423 9.4950653e-39
0.38765135 -0.27945888 2.8280387 1.0048595e-38
0.0011486048 -0.072719805 3.427983 5.2525949e-39
0.39974299 0.18772724 2.6413014 1.1431898e-38
0.093474738 1.1496122 3.3510463 2.2127324e-38
0.013024302 1.2113357 3.2648747 9.7777912e-39
0.049764737 1.009287 3.3703427 1.291462e-38
0.0066010747 1.0706545 3.3133659 9.6859586e-39
-0.15059273 1.1459868 3.1622086 1.1056203e-39
-0.18726322 1.0090362 3.1857076 1.3818456e-39
0.065283105 0.58074468 3.5454016 1.4936772e-38
0.025766807 0.81815475 3.4243228 9.4100975e-39
0.034455933 0.63419795 3.5010493 8.9458642e-39
-0.097542748 0.7820918 3.3419344 0
-0.19235198 0.82101887 3.2532411 1.5655152e-39
-0.14624777 0.60684562 3.3706179 1.2892899e-39
-0.21554857 0.64827853 3.3008511 1.8421007e-39
-0.28286842 0.92578506 3.1428559 1.6573507e-39
-0.32457235 0.78551263 3.1636958 1.5655166e-39
-0.35719278 0.62393504 3.1997168 1.5655166e-39
-0.22007789 1.1519014 3.1058054 1.7495478e-39
-0.24461548 1.0682254 3.1185019 1.4736797e-39
-0.34748477 1.139904 3.0110722 6.4464634e-40
-0.46432009 1.1283262 2.9244184 9.1835496e-41
-0.37087002 1.0264443 3.0359917 9.2051016e-40
-0.46834385 1.1136016 2.9268816 0
-0.51823008 1.1371255 2.8790569 0
-0.48691788 0.96451592 2.9690998 6.4428621e-40
-0.59538954 1.0327379 2.8586178 9.2194229e-41
-0.39890757 0.83815366 3.0857451 1.2892913e-39
-0.44259876 0.67603052 3.1133444 1.2900115e-39
-0.55863696 0.79646176 2.9771116 1.0130659e-39
-0.6267612 0.87167025 2.8954186 5.5281084e-40
-0.60568607 0.65072548 2.9958637 1.2900143e-39
0.026610212 0.42358765 3.5750248 5.1633126e-39
0.021498177 0.22056834 3.6482439 2.4881946e-39
-0.13958578 0.13849279 3.5539131 1.1048972e-39
-0.0047410396 0.5012598 3.521054 7.5585871e-39
-0.18469557 0.42016414 3.4116437 1.9342935e-39
-0.25574508 0.48980817 3.3297863 2.1186848e-39
-0.19804139 0.22863735 3.4740741 2.0261262e-39
0.0049428819 0.041655838 3.7033772 1.4729595e-39
-0.17470315 0.03594188 3.5655415 1.1045385e-39
-0.24019413 0.066005133 3.5030682 1.6573493e-39
-0.28565335 0.35085392 3.359318 2.3952675e-39
-0.38735992 0.43371013 3.2485437 1.9342949e-39
-0.33729771 0.20301743 3.3752868 2.1183247e-39
-0.40311953 0.25012675 3.3060739 2.2105217e-39
-0.48228931 0.38363016 3.193604 1.750268e-39
-0.50630802 0.31696814 3.2002344 2.0264948e-39
-0.37921801 0.020402851 3.41206 1.3807652e-39
-0.45331517 0.088863365 3.3282776 1.6573521e-39
-0.47926497 -0.0040811906 3.3433981 1.381124e-39
-0.64575595 0.058789723 3.1897333 1.6569976e-39
-0.62959015 0.42065349 3.0647242 1.290736e-39
-0.63060504 0.29520914 3.1116371 1.8413917e-39
-0.71418887 0.99153078 2.7817004 9.3270426e-41
-0.8098771 0.95901549 2.7194901 3.7057198e-40
-0.94681168 0.95944226 2.6126063 2.7730786e-39
-0.74493498 0.8316108 2.8185523 7.372021e-40
-0.69722283 0.57662678 2.9527013 1.3825729e-39
-0.8117823 0.62501693 2.8450165 1.6591598e-39
-0.89991939 0.64558041 2.7685063 1.9368299e-39
-0.8349846 0.89668959 2.7236233 5.5317238e-40
-0.98181742 0.58160233 2.729008 1.3834058e-38
-0.70036393 0.41991463 3.0098472 1.566967e-39
-0.82266986 0.48376781 2.890245 2.0286682e-39
-0.72953069 0.25770459 3.0488005 1.7513582e-39
-0.96278602 0.43976653 2.7977765 1.1803571e-38
-1.0148687 0.16844867 2.8603613 1.632513e-38
-0.76161319 0.1144793 3.0782619 1.6595213e-39
-0.84285337 -0.13067356 3.1081722 6.4501208e-40
-0.93729281 -0.013014857 2.9898269 1.5669712e-39
-1.040575 0.023968827 2.8952689 1.6620493e-39
-0.93375516 -0.10479122 3.0274844 1.0145121e-39
-1.060441 -0.10226119 2.9277883 1.1992719e-39
-1.096423 0.13453144 2.8096991 1.7063415e-38
-1.1890026 0.021910179 2.7803738 6.3658355e-39
-1.2373611 -0.15478058 2.8098757 7.3973145e-40
-1.2858629 -0.17916602 2.7813487 5.5569892e-40
-1.2431333 0.082179703 2.7152669 1.1991934e-38
-1.3452442 0.081178457 2.6360669 1.6235082e-38
-1.4555171 -0.23975375 2.6721673 3.7202933e-40
-0.08040303 -0.23552567 1.2096498 7.1916151e-39
-0.04015404 -0.30565041 1.1470714 1.0048232e-38
-0.30740121 -0.079250701 1.5760226 6.45442e-39
-0.46746796 -0.023498904 1.8374282 5.628276e-39
-0.3692939 -0.061448321 1.6773112 5.7190213e-39
-0.26419896 -0.096664652 1.5056019 6.8221263e-39
-0.30554476 -0.13906039 1.576315 9.3157383e-39
-0.3491258 -0.1291921 1.6477859 8.6692857e-39
-0.21761584 -0.1680631 1.4326273 8.854393e-39
-0.14284207 -0.1987045 1.3107724 7.6540422e-39
0.077754065 -0.28321296 0.95094728 4.5172075e-39
0.10418238 -0.29511732 0.90793878 3.9625946e-39
0.078489929 -0.34238431 0.95305562 5.9912516e-39
0.11973679 -0.32963473 0.88417178 5.7135843e-39
0.0099584665 -0.26318866 1.0618658 6.5444324e-39
0.02992266 -0.33218563 1.0327485 7.6507771e-39
-1.0806227 0.74945116 2.8073435 1.6970122e-38
-1.1391501 0.95338118 2.892612 6.3748178e-39
-1.1631516 0.71709329 2.9455547 1.2451808e-38
-1.141151 0.78943872 2.9051292 9.0434492e-39
-1.0809792 0.62766474 2.8147748 1.7246712e-38
-1.1738943 0.59412104 2.9702179 1.4112419e-38
-1.1411711 0.62488163 2.9144089 1.0056882e-38
-1.1841253 0.38403007 2.9989305 1.3836201e-38
-0.80169857 0.84859025 2.3408029 2.9509748e-39
-0.75913358 0.90300292 2.2674 7.0975865e-39
-0.77363968 0.86230105 2.2936604 5.8101127e-39
-0.98230195 0.95422 2.6333463 8.3193128e-40
-1.0160288 0.79257447 2.698168 1.7061243e-38
-1.0236069 0.65250242 2.7185619 2.3325854e-38
-1.1124021 0.18612933 2.8915148 1.3190106e-38
-1.0676813 -0.00064959377 2.8281 1.753526e-39
-1.1856445 0.26403928 3.0081835 1.2359979e-38
-1.1370425 0.23379163 2.9295592 1.4297904e-38
-1.0891315 -0.17723821 2.873472 4.6206135e-40
-0.57233691 0.050558366 2.0065811 5.62719e-39
-0.52817047 0.021291783 1.9352329 6.2740028e-39
0.077439904 1.178138 3.379138 2.1943291e-38
0.085421711 1.0698075 3.4066184 2.0009351e-38
0.043182399 1.1539019 3.3671176 1.1533849e-38
0.041639738 1.0561353 3.3875096 1.1440932e-38
0.082447074 0.61934268 3.5026612 1.8810439e-38
0.045049712 0.77592295 3.4499049 9.4129814e-39
0.037101123 0.6061812 3.4826536 7.5640115e-39
-0.24043395 0.59902787 3.344305 1.841742e-39
0.27985325 0.13669068 3.7066798 1.2807965e-38
0.33607015 0.060534224 3.7515078 1.3269643e-38
0.26665479 0.14072503 3.6991534 1.2901595e-38
0.081183828 0.44872659 3.5389686 1.3834032e-38
0.081086971 0.19983315 3.5928147 7.5564221e-39
-0.0016872523 0.4247674 3.5023839 6.0845388e-39
-0.0055113253 0.23510271 3.5415261 4.7923539e-39
0.23788406 0.06967698 3.7000353 1.0966559e-38
0.078678355 0.049167901 3.6242251 7.4652943e-39
-0.02285675 0.063019849 3.570045 4.9756619e-39
-0.16317818 0.33564156 3.44028 2.1190365e-39
-0.32056549 0.52599525 3.3197269 1.7495464e-39
-0.145632 0.1593605 3.4872959 1.6580626e-39
-0.51054746 0.2282431 3.2884362 1.9346579e-39
-0.18667449 0.049705144 3.4903517 1.4729595e-39
-0.30765721 -0.10624672 3.4631371 6.6355434e-39
-0.51113564 0.086198047 3.318898 1.6573521e-39
-0.4180522 -0.12425628 3.4113896 6.3593194e-39
-1.1801821 1.0242276 2.778533 1.5126201e-38
-1.1944505 0.84979409 2.8091116 1.8534566e-38
-1.2459737 0.68383241 2.8190768 2.2863799e-38
-1.3791214 0.98683381 2.6863501 1.0700448e-38
-1.4069424 0.83265966 2.7057102 1.2820957e-38
-1.3901244 0.63746244 2.7564552 1.3926227e-38
-0.56392592 0.1943745 3.2688637 1.7502708e-39
-0.60523546 0.036385417 3.2822504 1.3814911e-39
-0.58212519 -0.096702099 3.3227184 3.5949373e-39
-0.54683483 0.43946648 3.2244074 1.4736895e-39
-0.61811733 0.27280498 3.2245643 1.6580836e-39
-0.85053521 -0.11149448 3.1906238 7.3721471e-40
-1.1073607 0.40588945 2.9491329 1.1071767e-38
-1.1021851 0.2663174 2.9819636 1.2914598e-38
-1.24595 0.22200342 2.9190915 1.4574839e-38
-1.3454561 0.34877238 2.8414829 1.3928035e-38
-1.3643018 0.24502599 2.8544486 1.15313e-38
-1.3915101 0.44766787 2.7968535 1.5217338e-38
-1.4567437 0.24561873 2.8077226 1.2362146e-38
1.1606499 -0.28862229 2.855835 1.4195609e-38
0.94791204 -0.16956367 3.2054996 1.5581063e-38
0.86119634 -0.14668338 3.2699261 1.7054396e-38
1.0024768 -0.22476526 3.0407131 1.5210831e-38
1.0209689 -0.2698769 2.9044683 1.4565109e-38
0.53864348 0.038839165 3.8153303 1.4284537e-38
0.58706248 0.010596442 3.7322602 1.6312471e-38
0.41939181 0.053025525 3.8513167 1.3822093e-38
0.31511396 0.027215574 3.7664218 1.3177085e-38
0.024147056 -0.00090350787 3.6632082 3.7774803e-39
0.37971264 -0.21824056 3.0229263 1.3920077e-38
0.43582287 -0.25931677 2.9012439 1.3827897e-38
0.22652967 -0.092047974 3.3979146 1.3548762e-38
0.20537338 -0.13936493 3.252557 9.4925135e-39
0.027213972 -0.062098082 3.4770591 6.9117673e-39
0.074957162 -0.099285357 3.3667126 6.9128449e-39
0.2802178 -0.18877681 3.1066263 1.1983614e-38
0.32278612 -0.23342575 2.9732461 1.1616277e-38
1.1654136 -0.30732721 2.7991676 1.3459116e-38
1.0143558 -0.29833135 2.817426 1.4656943e-38
0.50812936 -0.2974627 2.7894635 1.4565109e-38
1.200596 -0.34006134 2.7016206 1.2997416e-38
1.2264721 -0.38254297 2.5738311 1.244496e-38
1.0822181 -0.33813033 2.7003434 1.3919375e-38
1.0407001 -0.40762097 2.486238 1.3458035e-38
0.90498316 -0.32791185 2.7207422 1.5026083e-38
0.75477928 -0.41742742 2.4390903 1.207582e-38
0.99572909 -0.4725363 2.2858548 1.2076539e-38
0.96845776 -0.54174137 2.0734799 9.3106656e-39
0.81909728 -0.46907902 2.2857022 1.0876912e-38
0.87195474 -0.49733719 2.2028537 1.0601044e-38
0.8722055 -0.52588344 2.1159472 8.6645759e-39
0.97293681 -0.5725702 1.9798789 7.6518631e-39
0.59478289 -0.33881837 2.668776 1.5209025e-38
0.68596101 -0.3985588 2.4923832 1.3276172e-38
0.51678658 -0.31030449 2.7508843 1.3920818e-38
0.72448635 -0.46263203 2.299613 8.6642214e-39
0.10123813 -0.64151049 1.717254 1.2072918e-38
-0.54825032 -0.075666234 3.4009507 7.3576017e-40
-0.57645971 -0.085961998 3.3678951 8.2867747e-40
-0.64722425 -0.24270442 2.8863437 8.1128455e-39
-0.84910393 -0.15128306 3.1525106 7.3613151e-40
-0.88758588 -0.16829979 3.0983691 3.6770352e-40
-0.9957276 -0.21254176 2.9571161 1.8367099e-40
-1.1464363 -0.25516874 2.8182065 1.1989019e-39
-1.1953623 -0.27276316 2.7616746 2.8591407e-39
-1.2937875 -0.2857905 2.7160559 9.230381e-40
-0.1344814 -0.5118733 2.0977402 1.1983626e-38
-1.2500288 -0.30645356 2.6557839 6.8249849e-39
-1.2318443 -0.3714242 2.4590509 9.5048001e-39
-1.220672 -0.43229863 2.2743671 1.448987e-38
-1.0983754 -0.50372487 2.0642722 1.0528366e-38
-1.3494772 -0.31131443 2.6349699 2.7680283e-39
-1.3472462 -0.33967918 2.5487356 6.273616e-39
-0.93606573 -0.59529257 1.7952671 1.1814415e-38
-0.88529688 -0.61963767 1.724207 7.5734058e-39
0.068083413 1.2580327 3.2448046 1.632514e-38
0.069466628 1.1279488 3.2822888 1.6509528e-38
0.036075763 1.2401198 3.2369967 1.0425693e-38
-0.00063564442 1.1077999 3.2597702 9.5926713e-39
0.081038423 0.87714082 3.3581467 2.0653274e-38
0.080525324 0.64080143 3.4250293 1.5953102e-38
0.087454893 0.78804636 3.3860221 2.074547e-38
-0.0130631 0.9100315 3.3109055 8.6678269e-39
-0.024614874 0.72035712 3.3600948 6.9146638e-39
-0.21203734 0.89499879 3.2350247 1.6577095e-39
-0.18603748 1.0959023 3.1884673 1.565518e-39
0.37715238 0.10310216 3.6971488 1.244171e-38
0.087407134 0.51363558 3.4638999 1.8626761e-38
0.086404979 0.2927241 3.5262063 9.9571168e-39
-0.029918429 0.49966633 3.4206057 7.7418938e-39
-0.068580784 0.54917628 3.3909783 5.529563e-39
-0.038677596 0.29356116 3.4755847 7.2801855e-39
0.081231475 0.13513879 3.568856 8.3861786e-39
-0.025760442 0.17477307 3.514508 7.0043147e-39
-0.16872676 0.52262801 3.358175 2.025413e-39
-0.24281207 0.35967067 3.3745916 2.3949158e-39
-0.52853632 0.096359938 3.3342462 1.7495464e-39
-0.51169956 -0.031340607 3.3772781 1.1967327e-39
-1.1616169 1.0332755 2.8132761 1.0886974e-38
-1.2202719 1.0765836 2.7773557 2.1114599e-38
-1.1404687 0.93090063 2.8508561 1.0059047e-38
-1.1303198 0.61589891 2.9443631 1.3747247e-38
-1.1828395 0.89061463 2.8452244 1.4296442e-38
-1.2013564 0.72916257 2.8835969 1.7798443e-38
-1.2290093 0.99855745 2.7959852 2.3509886e-38
-1.3968017 1.0508595 2.713551 1.042458e-38
-1.3547733 0.65230727 2.843617 2.3509886e-38
-1.448055 0.96009189 2.7186716 1.1622409e-38
-1.4664154 0.73243189 2.7759018 2.3509886e-38
-0.59440559 0.055983253 3.3191757 1.4736853e-39
-0.58768874 -0.029292703 3.3460882 1.1049014e-39
-1.1353469 0.49571308 2.9764552 9.1352945e-39
-1.1319016 0.32839432 3.0253396 9.133491e-39
-1.1360996 0.38704675 3.006999 8.9512704e-39
-1.1934984 0.5154615 2.9474251 1.8351263e-38
-1.1542455 0.28496453 3.0286682 1.0147273e-38
-1.2778825 0.30261698 2.9738545 1.3834755e-38
-1.4220542 0.54822356 2.8460619 2.0651829e-38
-1.3509259 0.29385918 2.9469192 1.2913519e-38
0.071459062 1.1443735 3.2891278 1.3102981e-38
0.074501991 0.96634519 3.3593879 1.623258e-38
-0.029244984 1.1839992 3.1962836 8.3001318e-39
0.024228498 0.95654422 3.3243237 9.4104675e-39
-0.046060178 1.0173169 3.2468889 6.3611299e-39
0.070096694 0.83650094 3.4055192 1.595563e-38
0.061080631 0.6192596 3.4814303 1.1434797e-38
0.027213562 0.82363904 3.3773263 9.50121e-39
-0.077031434 0.83897346 3.2910156 3.409439e-39
-0.00019455986 0.65393335 3.4209077 7.8373432e-39
-0.20915671 0.96675986 3.1402886 1.5662341e-39
-0.17693529 0.78480113 3.23457 1.6573507e-39
-0.34778112 0.53109658 3.1994822 1.7495464e-39
-0.21921201 1.1527282 3.0615869 2.8548149e-39
-0.28494334 1.0820787 3.0378029 1.0127086e-39
-0.37244204 1.1315258 2.951405 1.1974502e-39
-0.38922197 1.0412965 2.972873 9.2015002e-40
-0.30969486 0.91522872 3.082346 1.7495464e-39
-0.42408553 0.89930248 3.0001292 1.0134205e-39
-0.42972904 0.66146922 3.0864983 1.107058e-39
0.071977735 0.42900375 3.562417 7.8405886e-39
0.061244264 0.1624739 3.6558046 2.6711411e-39
0.027556079 0.37109476 3.5502207 5.1625895e-39
0.020630162 0.21704492 3.6036396 3.4101481e-39
-0.025910398 0.067878939 3.6246197 3.132478e-39
-0.16285691 0.033758663 3.5319328 1.1963726e-39
-0.18427901 0.088902317 3.4943631 1.5651565e-39
-0.37934342 0.040287945 3.3623481 1.5655138e-39
-0.5016126 -0.15172619 3.3412213 6.0816578e-39
-0.64020848 1.0281885 2.7841496 9.2911693e-41
-0.7808286 0.96759439 2.6987267 1.8439126e-40
-0.6732958 0.83804196 2.8311458 6.4500787e-40
-0.78814679 0.8730672 2.7291369 5.5352831e-40
-0.85110807 0.60938257 2.7811275 1.8439154e-39
-0.82741094 0.89388996 2.6908879 4.6133548e-40
-0.96944696 0.99037558 2.5444517 1.1534231e-38
-0.76810205 -0.20329928 3.1552057 5.1618637e-39
-0.69263572 0.40911976 2.9798372 1.5673257e-39
-0.6821599 0.20057738 3.0674744 1.6580836e-39
-0.86174208 0.42253777 2.8441942 2.2130623e-39
-0.85028613 0.20318253 2.936713 1.8439182e-39
-0.89972878 0.25956526 2.8770425 2.1212282e-39
-0.73347604 0.084985994 3.0719604 1.475856e-39
-0.87901574 0.035184011 2.9786239 2.0283137e-39
-0.92615408 0.11280449 2.9126308 2.0283123e-39
-0.85017967 -0.10686579 3.055068 1.0137932e-39
-0.96110791 0.24596466 2.8348556 3.320493e-39
-0.97362822 -0.054037843 2.9396324 1.3829443e-39
-1.0765285 0.011648716 2.8351517 1.7538862e-39
-1.0084816 -0.15118976 2.9497912 7.3756784e-40
-1.1176239 -0.16487114 2.870769 8.2976627e-40
-1.1684166 0.011846018 2.7641532 2.0304759e-39
-1.1541816 -0.15112564 2.8373084 6.4718269e-40
-0.055277236 -0.17938401 1.2471334 3.7774803e-39
-0.012181431 -0.20615214 1.1776607 5.4362785e-39
-0.42798415 0.027580315 1.8566971 5.9927215e-39
-0.37391871 -0.00022952328 1.7674847 4.4289986e-39
-0.27078635 -0.059913449 1.5996712 7.0032805e-39
-0.33178297 -0.026183899 1.6994822 6.0831277e-39
-0.1902563 -0.10363164 1.4676076 5.6228502e-39
-0.11025594 -0.14688534 1.3363498 4.1477033e-39
0.11369628 -0.27857375 0.9726854 3.1310291e-39
0.15731806 -0.3030895 0.90144587 5.8954448e-39
0.053075645 -0.24124749 1.0705259 4.8827432e-39
-1.0824964 0.81167763 2.7773137 1.6602424e-38
-1.1378465 1.0413909 2.7969604 7.9378219e-39
-1.1309575 0.90283233 2.8336871 1.0241994e-38
-1.0481077 0.6156249 2.7841058 6.7526261e-39
-1.0505192 0.47534832 2.8384948 1.6879011e-38
-1.1540235 0.61056817 2.9800835 1.3468135e-38
-1.1498289 0.50773185 3.0090251 1.1346904e-38
-1.1083187 0.47738969 2.943733 1.1901526e-38
-0.83041978 0.86859804 2.2949033 2.9513406e-39
-1.0624907 1.0322824 2.6620541 1.6971203e-38
-1.0541939 0.91314685 2.6892815 1.807647e-38
-1.1037338 1.0381871 2.7355626 1.2269576e-38
-1.0982493 0.95846844 2.7539048 1.0244525e-38
-1.0398704 0.70109278 2.738559 2.341769e-38
-1.0219926 0.55646586 2.7573018 2.1298277e-38
-1.0515124 0.30751905 2.9000998 1.4298258e-38
-1.034586 0.17678592 2.915637 1.3006079e-38
-1.1311897 0.34571096 3.032568 9.9628916e-39
-0.98350203 -0.13782951 2.9340553 1.0134415e-39
-0.51806617 0.069951423 2.0067523 7.0087008e-39
-0.49364319 0.063682027 1.9642104 8.4830854e-39
