# .PCD v0.7 - Point Cloud Data file format
VERSION 0.7
FIELDS x y z rgb
SIZE 4 4 4 4
TYPE F F F F
COUNT 1 1 1 1
WIDTH 1218
HEIGHT 1
VIEWPOINT 0 0 0 1 0 0 0
POINTS 1218
DATA ascii
1 0.42779747 -0.04837507 2.3436058e-38
1 0.44776398 -0.050158549 2.3436058e-38
1 0.46608925 -0.051009048 2.3436058e-38
1 0.49035561 -0.048825596 2.3436058e-38
1 0.50911701 -0.050637327 2.3436058e-38
1 0.53142256 -0.048302967 2.3436058e-38
1 0.55227411 -0.050840382 2.3436058e-38
1 0.56982815 -0.051728409 2.3436058e-38
1 0.5897913 -0.051955413 2.3436058e-38
1 0.6063596 -0.052199412 2.3436058e-38
1 0.62540889 -0.048573125 2.3436058e-38
1 0.65212077 -0.051835459 2.3436058e-38
1 0.67104089 -0.049611729 2.3436058e-38
1 0.69051147 -0.055182189 2.3436058e-38
1 0.70827913 -0.050714314 2.3436058e-38
1 0.732171 -0.047310919 2.3436058e-38
1 0.74788815 -0.04657656 2.3436058e-38
1 0.77440029 -0.052626748 2.3436058e-38
1 0.7899645 -0.050222326 2.3436058e-38
1 0.81317925 -0.05052495 2.3436058e-38
1 0.82693434 -0.050950211 2.3436058e-38
1 0.84793729 -0.052067518 2.3436058e-38
1 0.87381667 -0.049726009 2.3436058e-38
1 0.88878721 -0.04914625 2.3436058e-38
1 0.90931779 -0.050108768 2.3436058e-38
1 0.9296965 -0.048826553 2.3436058e-38
1 0.94747943 -0.052122977 2.3436058e-38
1 0.96710587 -0.04440546 2.3436058e-38
1 0.98684019 -0.054304123 2.3436058e-38
1 -0.98775071 -0.031277921 2.3436058e-38
1 -0.96955347 -0.031019974 2.3436058e-38
1 -0.94969982 -0.029688884 2.3436058e-38
1 -0.93212461 -0.033248067 2.3436058e-38
1 -0.9065327 -0.030277217 2.3436058e-38
1 -0.88853306 -0.030770991 2.3436058e-38
1 -0.87374926 -0.03008604 2.3436058e-38
1 -0.85036868 -0.027156224 2.3436058e-38
1 -0.8309468 -0.0289026 2.3436058e-38
1 -0.81049508 -0.030465657 2.3436058e-38
1 -0.79293615 -0.030209828 2.3436058e-38
1 -0.7716307 -0.027499676 2.3436058e-38
1 -0.7504195 -0.031990569 2.3436058e-38
1 -0.73033351 -0.027762795 2.3436058e-38
1 -0.71056676 -0.029501256 2.3436058e-38
1 -0.68783963 -0.030856393 2.3436058e-38
1 -0.66849285 -0.02931653 2.3436058e-38
1 -0.65128452 -0.030491034 2.3436058e-38
1 -0.63045138 -0.031004908 2.3436058e-38
1 -0.60834372 -0.031983186 2.3436058e-38
1 -0.59029216 -0.032795489 2.3436058e-38
1 -0.56868118 -0.030410672 2.3436058e-38
1 -0.54969317 -0.030217614 2.3436058e-38
1 -0.53187013 -0.028830528 2.3436058e-38
1 -0.51227719 -0.029654715 2.3436058e-38
1 -0.49225917 -0.031605192 2.3436058e-38
1 -0.47048044 -0.030411402 2.3436058e-38
1 -0.44925451 -0.030619085 2.3436058e-38
1 -0.43395177 -0.033159256 2.3436058e-38
1 -0.41044757 -0.031072142 2.3436058e-38
1 -0.39017302 -0.03021102 2.3436058e-38
1 -0.37047559 -0.029294109 2.3436058e-38
1 -0.35176283 -0.032387629 2.3436058e-38
1 -0.32777065 -0.031889878 2.3436058e-38
1 -0.3071149 -0.032042585 2.3436058e-38
1 -0.28858986 -0.027263833 2.3436058e-38
1 -0.27147496 -0.029451609 2.3436058e-38
1 -0.24928008 -0.029135752 2.3436058e-38
1 -0.23225045 -0.031455398 2.3436058e-38
1 -0.21033645 -0.028689576 2.3436058e-38
1 -0.1917088 -0.030250741 2.3436058e-38
1 -0.16993329 -0.029478258 2.3436058e-38
1 -0.14809792 -0.031288505 2.3436058e-38
1 -0.12784509 -0.028440714 2.3436058e-38
1 -0.10818045 -0.031368099 2.3436058e-38
1 -0.091058515 -0.026859501 2.3436058e-38
1 -0.068689771 -0.030661 2.3436058e-38
1 -0.047537193 -0.029382095 2.3436058e-38
1 -0.030388054 -0.030316874 2.3436058e-38
1 -0.0083988905 -0.027342796 2.3436058e-38
1 0.011396837 -0.030783271 2.3436058e-38
1 0.030626342 -0.032069813 2.3436058e-38
1 0.048446801 -0.030257655 2.3436058e-38
1 0.066507399 -0.031160712 2.3436058e-38
1 0.091422364 -0.03179447 2.3436058e-38
1 0.10889747 -0.028197987 2.3436058e-38
1 0.12995934 -0.034094889 2.3436058e-38
1 0.14980924 -0.029915031 2.3436058e-38
1 0.16854069 -0.031099865 2.3436058e-38
1 0.18747002 -0.026344597 2.3436058e-38
1 0.20652787 -0.028867139 2.3436058e-38
1 0.22659221 -0.026480336 2.3436058e-38
1 0.25031888 -0.029497683 2.3436058e-38
1 0.27316147 -0.032702684 2.3436058e-38
1 0.28764027 -0.030380728 2.3436058e-38
1 0.31072268 -0.028104782 2.3436058e-38
1 0.32955417 -0.027071476 2.3436058e-38
1 0.35004243 -0.032079834 2.3436058e-38
1 0.36590803 -0.032080788 2.3436058e-38
1 0.38744161 -0.02906472 2.3436058e-38
1 0.41048425 -0.027582487 2.3436058e-38
1 0.4253757 -0.028593898 2.3436058e-38
1 0.4485305 -0.029390479 2.3436058e-38
1 0.46947712 -0.033297461 2.3436058e-38
1 0.48680413 -0.032770693 2.3436058e-38
1 0.51112783 -0.030504465 2.3436058e-38
1 0.53425014 -0.032318354 2.3436058e-38
1 0.55157632 -0.030036449 2.3436058e-38
1 0.56978804 -0.030561924 2.3436058e-38
1 0.58833331 -0.032042231 2.3436058e-38
1 0.60837579 -0.029352752 2.3436058e-38
1 0.62951881 -0.032591954 2.3436058e-38
1 0.6472742 -0.027001917 2.3436058e-38
1 0.66965324 -0.031888116 2.3436058e-38
1 0.69102365 -0.028061232 2.3436058e-38
1 0.70767641 -0.030396415 2.3436058e-38
1 0.73077613 -0.029129677 2.3436058e-38
1 0.7525906 -0.030709064 2.3436058e-38
1 0.77248544 -0.026711464 2.3436058e-38
1 0.79320437 -0.028861618 2.3436058e-38
1 0.80862582 -0.029527592 2.3436058e-38
1 0.82945853 -0.029993504 2.3436058e-38
1 0.84875202 -0.030204106 2.3436058e-38
1 0.86831874 -0.032931328 2.3436058e-38
1 0.89061952 -0.028402328 2.3436058e-38
1 0.91057616 -0.029127816 2.3436058e-38
1 0.93433779 -0.027850527 2.3436058e-38
1 0.95165855 -0.029241418 2.3436058e-38
1 0.96810639 -0.029201508 2.3436058e-38
1 0.98971361 -0.02984798 2.3436058e-38
1 -0.98741204 -0.0075562652 2.3436058e-38
1 -0.96704972 -0.013300499 2.3436058e-38
1 -0.94904089 -0.0085135875 2.3436058e-38
1 -0.9267813 -0.014516434 2.3436058e-38
1 -0.91064787 -0.0093940822 2.3436058e-38
1 -0.89101213 -0.0095727611 2.3436058e-38
1 -0.87185097 -0.0091018677 2.3436058e-38
1 -0.85116023 -0.010982254 2.3436058e-38
1 -0.83188516 -0.0098498892 2.3436058e-38
1 -0.81205779 -0.010469841 2.3436058e-38
1 -0.78982627 -0.010528424 2.3436058e-38
1 -0.77118707 -0.010543251 2.3436058e-38
1 -0.75393701 -0.0085496306 2.3436058e-38
1 -0.73203886 -0.013479292 2.3436058e-38
1 -0.71071839 -0.010871194 2.3436058e-38
1 -0.68570381 -0.012218284 2.3436058e-38
1 -0.66782284 -0.011270735 2.3436058e-38
1 -0.6510303 -0.011247254 2.3436058e-38
1 -0.63058883 -0.0090334602 2.3436058e-38
1 -0.6085453 -0.011438489 2.3436058e-38
1 -0.58608246 -0.0060228347 2.3436058e-38
1 -0.56971151 -0.012529135 2.3436058e-38
1 -0.54952455 -0.0081653595 2.3436058e-38
1 -0.53035349 -0.011000422 2.3436058e-38
1 -0.51035982 -0.011741281 2.3436058e-38
1 -0.48949012 -0.010224788 2.3436058e-38
1 -0.47563127 -0.0096196448 2.3436058e-38
1 -0.44960523 -0.0061221123 2.3436058e-38
1 -0.43005317 -0.010989103 2.3436058e-38
1 -0.41061124 -0.0073603224 2.3436058e-38
1 -0.38677463 -0.0090253018 2.3436058e-38
1 -0.37264574 -0.010132015 2.3436058e-38
1 -0.35098717 -0.010525132 2.3436058e-38
1 -0.33186346 -0.0099328887 2.3436058e-38
1 -0.31169337 -0.010404746 2.3436058e-38
1 -0.28914401 -0.0072004581 2.3436058e-38
1 -0.26605019 -0.013827642 2.3436058e-38
1 -0.24681751 -0.010298773 2.3436058e-38
1 -0.2259375 -0.0093476996 2.3436058e-38
1 -0.20805654 -0.0094629927 2.3436058e-38
1 -0.19314426 -0.013948739 2.3436058e-38
1 -0.17116117 -0.011580944 2.3436058e-38
1 -0.15041265 -0.012998899 2.3436058e-38
1 -0.12867481 -0.010169148 2.3436058e-38
1 -0.11112496 -0.011630019 2.3436058e-38
1 -0.089778297 -0.010523493 2.3436058e-38
1 -0.070767626 -0.0075773462 2.3436058e-38
1 -0.050453901 -0.011773014 2.3436058e-38
1 -0.036141396 -0.0096669197 2.3436058e-38
1 -0.014483134 -0.0093600489 2.3436058e-38
1 0.011432409 -0.008830389 2.3436058e-38
1 0.027263483 -0.01260519 2.3436058e-38
1 0.049762171 -0.010385116 2.3436058e-38
1 0.067994297 -0.010708332 2.3436058e-38
1 0.089575052 -0.010458422 2.3436058e-38
1 0.10800564 -0.0094611645 2.3436058e-38
1 0.12546015 -0.0084077232 2.3436058e-38
1 0.14903975 -0.0069872541 2.3436058e-38
1 0.17187341 -0.010043448 2.3436058e-38
1 0.18938828 -0.007775879 2.3436058e-38
1 0.20962906 -0.0087501742 2.3436058e-38
1 0.22840707 -0.012157076 2.3436058e-38
1 0.2484607 -0.011931658 2.3436058e-38
1 0.27083755 -0.014764787 2.3436058e-38
1 0.29289684 -0.013544356 2.3436058e-38
1 0.31139252 -0.011961665 2.3436058e-38
1 0.32964629 -0.010248253 2.3436058e-38
1 0.34917715 -0.0098748207 2.3436058e-38
1 0.37148863 -0.012700677 2.3436058e-38
1 0.39076272 -0.0097587379 2.3436058e-38
1 0.41096982 -0.012624401 2.3436058e-38
1 0.42908415 -0.010541052 2.3436058e-38
1 0.44854805 -0.012714433 2.3436058e-38
1 0.46829066 -0.0072284276 2.3436058e-38
1 0.49009618 -0.011187958 2.3436058e-38
1 0.5059101 -0.013350487 2.3436058e-38
1 0.52815062 -0.01001519 2.3436058e-38
1 0.5495187 -0.0092689516 2.3436058e-38
1 0.56892836 -0.0090077268 2.3436058e-38
1 0.59163928 -0.012631536 2.3436058e-38
1 0.61052167 -0.0075718565 2.3436058e-38
1 0.63336927 -0.0096998215 2.3436058e-38
1 0.64973938 -0.0083250469 2.3436058e-38
1 0.66891813 -0.0098929405 2.3436058e-38
1 0.69055289 -0.014520062 2.3436058e-38
1 0.70887303 -0.010874589 2.3436058e-38
1 0.72843468 -0.0091953278 2.3436058e-38
1 0.75051081 -0.010370478 2.3436058e-38
1 0.77103132 -0.011270567 2.3436058e-38
1 0.78904188 -0.012443106 2.3436058e-38
1 0.80510712 -0.0033740997 2.3436058e-38
1 0.83033586 -0.0092065334 2.3436058e-38
1 0.85130662 -0.0086653233 2.3436058e-38
1 0.87043703 -0.0100221 2.3436058e-38
1 0.89000559 -0.0090106018 2.3436058e-38
1 0.9073146 -0.011192799 2.3436058e-38
1 0.92795295 -0.0094925566 2.3436058e-38
1 0.9478547 -0.012442875 2.3436058e-38
1 0.9672488 -0.0088259522 2.3436058e-38
1 0.98976517 -0.009419282 2.3436058e-38
1 -0.98597509 0.010531266 2.3436058e-38
1 -0.96787369 0.0093875527 2.3436058e-38
1 -0.95135117 0.0070194141 2.3436058e-38
1 -0.9264096 0.011881351 2.3436058e-38
1 -0.90986925 0.010461152 2.3436058e-38
1 -0.8873921 0.01067098 2.3436058e-38
1 -0.86851907 0.0097058611 2.3436058e-38
1 -0.85138637 0.010279072 2.3436058e-38
1 -0.83239311 0.0052377703 2.3436058e-38
1 -0.81152064 0.0081431707 2.3436058e-38
1 -0.79199219 0.0083663631 2.3436058e-38
1 -0.76835293 0.01037054 2.3436058e-38
1 -0.75067544 0.0071153641 2.3436058e-38
1 -0.73116064 0.007750988 2.3436058e-38
1 -0.70846313 0.0090653682 2.3436058e-38
1 -0.68672067 0.0094577353 2.3436058e-38
1 -0.67160249 0.0083169146 2.3436058e-38
1 -0.65205729 0.0085315704 2.3436058e-38
1 -0.62837279 0.0072924616 2.3436058e-38
1 -0.60870975 0.0081699919 2.3436058e-38
1 -0.59007788 0.010976928 2.3436058e-38
1 -0.57040048 0.010947824 2.3436058e-38
1 -0.55248803 0.010147058 2.3436058e-38
1 -0.52955502 0.0081454758 2.3436058e-38
1 -0.50891334 0.011391368 2.3436058e-38
1 -0.49076366 0.011681341 2.3436058e-38
1 -0.47129905 0.010534355 2.3436058e-38
1 -0.44993389 0.010071018 2.3436058e-38
1 -0.43319789 0.01097498 2.3436058e-38
1 -0.41190109 0.011022598 2.3436058e-38
1 -0.38980609 0.0073034926 2.3436058e-38
1 -0.37010145 0.010613156 2.3436058e-38
1 -0.34901309 0.010725319 2.3436058e-38
1 -0.33113188 0.0098048057 2.3436058e-38
1 -0.30848524 0.011642933 2.3436058e-38
1 -0.28904641 0.0090159308 2.3436058e-38
1 -0.26794869 0.010555903 2.3436058e-38
1 -0.25377697 0.010554655 2.3436058e-38
1 -0.22943714 0.010493279 2.3436058e-38
1 -0.20914967 0.0079416363 2.3436058e-38
1 -0.18746221 0.013430119 2.3436058e-38
1 -0.16938309 0.0079702036 2.3436058e-38
1 -0.14850496 0.01124278 2.3436058e-38
1 -0.13251297 0.0080093239 2.3436058e-38
1 -0.11251702 0.0085218912 2.3436058e-38
1 -0.089924626 0.0072201728 2.3436058e-38
1 -0.06898313 0.011349487 2.3436058e-38
1 -0.048035443 0.0094525814 2.3436058e-38
1 -0.034445822 0.012198031 2.3436058e-38
1 -0.011344287 0.00934909 2.3436058e-38
1 0.0090664234 0.010168171 2.3436058e-38
1 0.029164685 0.010577996 2.3436058e-38
1 0.049844265 0.0087811733 2.3436058e-38
1 0.066032827 0.0075351596 2.3436058e-38
1 0.089109972 0.0086757801 2.3436058e-38
1 0.11082522 0.010924816 2.3436058e-38
1 0.13073364 0.010163927 2.3436058e-38
1 0.14644623 0.0099030137 2.3436058e-38
1 0.16720992 0.0089785457 2.3436058e-38
1 0.18641314 0.014033636 2.3436058e-38
1 0.21080975 0.011312723 2.3436058e-38
1 0.22925901 0.008129173 2.3436058e-38
1 0.24714682 0.0095674833 2.3436058e-38
1 0.2664609 0.012558858 2.3436058e-38
1 0.29196563 0.011542525 2.3436058e-38
1 0.30784866 0.011082888 2.3436058e-38
1 0.32818648 0.0073891087 2.3436058e-38
1 0.34826124 0.0097219944 2.3436058e-38
1 0.36804938 0.010124814 2.3436058e-38
1 0.3897751 0.0081071174 2.3436058e-38
1 0.41162136 0.010998302 2.3436058e-38
1 0.42828929 0.0061470382 2.3436058e-38
1 0.45279819 0.0078310966 2.3436058e-38
1 0.46866369 0.011845469 2.3436058e-38
1 0.49065065 0.010162513 2.3436058e-38
1 0.51149201 0.010552986 2.3436058e-38
1 0.5344094 0.0076565747 2.3436058e-38
1 0.55071628 0.0073375306 2.3436058e-38
1 0.57112813 0.010867327 2.3436058e-38
1 0.5900507 0.0091426717 2.3436058e-38
1 0.60897678 0.0098965643 2.3436058e-38
1 0.63105839 0.0079872748 2.3436058e-38
1 0.64785308 0.012653589 2.3436058e-38
1 0.66842401 0.011851788 2.3436058e-38
1 0.69087893 0.0068048751 2.3436058e-38
1 0.71113598 0.013637884 2.3436058e-38
1 0.72650844 0.0094956672 2.3436058e-38
1 0.74860501 0.0085456846 2.3436058e-38
1 0.77059907 0.011384063 2.3436058e-38
1 0.79047602 0.011890555 2.3436058e-38
1 0.80826569 0.0091577535 2.3436058e-38
1 0.83031529 0.010422906 2.3436058e-38
1 0.85520422 0.011041164 2.3436058e-38
1 0.86825728 0.0087956022 2.3436058e-38
1 0.89362931 0.011590799 2.3436058e-38
1 0.90986794 0.010156762 2.3436058e-38
1 0.93122023 0.0088861641 2.3436058e-38
1 0.95422351 0.011306975 2.3436058e-38
1 0.96920568 0.011424017 2.3436058e-38
1 0.99230021 0.011659527 2.3436058e-38
1 -0.99067253 0.029792977 2.3436058e-38
1 -0.96956098 0.029372275 2.3436058e-38
1 -0.94885308 0.0305862 2.3436058e-38
1 -0.92644554 0.030196296 2.3436058e-38
1 -0.91033387 0.029877821 2.3436058e-38
1 -0.89174759 0.026707968 2.3436058e-38
1 -0.87139893 0.02893126 2.3436058e-38
1 -0.84858078 0.030973913 2.3436058e-38
1 -0.83273643 0.026683595 2.3436058e-38
1 -0.81037807 0.030935194 2.3436058e-38
1 -0.79239929 0.028171064 2.3436058e-38
1 -0.77232993 0.028120043 2.3436058e-38
1 -0.74920994 0.029967016 2.3436058e-38
1 -0.73066247 0.03002126 2.3436058e-38
1 -0.71125042 0.029295316 2.3436058e-38
1 -0.69012493 0.033035845 2.3436058e-38
1 -0.67268258 0.028322358 2.3436058e-38
1 -0.65260816 0.030264746 2.3436058e-38
1 -0.62753761 0.028618693 2.3436058e-38
1 -0.60687417 0.028347561 2.3436058e-38
1 -0.58980751 0.030901067 2.3436058e-38
1 -0.57325858 0.032293711 2.3436058e-38
1 -0.54842103 0.029445997 2.3436058e-38
1 -0.52721947 0.03215003 2.3436058e-38
1 -0.50933945 0.034002479 2.3436058e-38
1 -0.48935577 0.027688345 2.3436058e-38
1 -0.4709281 0.030358352 2.3436058e-38
1 -0.45052752 0.031260271 2.3436058e-38
1 -0.42894244 0.029597681 2.3436058e-38
1 -0.41332167 0.029085636 2.3436058e-38
1 -0.38705704 0.029012546 2.3436058e-38
1 -0.36880931 0.031182766 2.3436058e-38
1 -0.34896865 0.028144201 2.3436058e-38
1 -0.32871911 0.030393645 2.3436058e-38
1 -0.31155366 0.02923882 2.3436058e-38
1 -0.2928316 0.028436422 2.3436058e-38
1 -0.2703793 0.028373718 2.3436058e-38
1 -0.24936372 0.033723246 2.3436058e-38
1 -0.23640139 0.026890384 2.3436058e-38
1 -0.20901699 0.030339194 2.3436058e-38
1 -0.18792881 0.029307192 2.3436058e-38
1 -0.17018163 0.0328511 2.3436058e-38
1 -0.14905548 0.031482697 2.3436058e-38
1 -0.13369337 0.030114889 2.3436058e-38
1 -0.11058795 0.032763362 2.3436058e-38
1 -0.09095069 0.029155772 2.3436058e-38
1 -0.073457241 0.029987726 2.3436058e-38
1 -0.052759908 0.031110981 2.3436058e-38
1 -0.032259166 0.030160427 2.3436058e-38
1 -0.011437035 0.028370524 2.3436058e-38
1 0.010947338 0.030350063 2.3436058e-38
1 0.029281795 0.031106234 2.3436058e-38
1 0.050661039 0.031973507 2.3436058e-38
1 0.069851115 0.028739167 2.3436058e-38
1 0.088145971 0.02644062 2.3436058e-38
1 0.10776554 0.030681066 2.3436058e-38
1 0.13054386 0.029014442 2.3436058e-38
1 0.15143991 0.027820468 2.3436058e-38
1 0.17180417 0.030271834 2.3436058e-38
1 0.19097161 0.030089021 2.3436058e-38
1 0.20805378 0.03052818 2.3436058e-38
1 0.22736843 0.027990479 2.3436058e-38
1 0.2511771 0.028590202 2.3436058e-38
1 0.26800904 0.028892836 2.3436058e-38
1 0.28878748 0.030799031 2.3436058e-38
1 0.31298316 0.032313347 2.3436058e-38
1 0.33252543 0.028106134 2.3436058e-38
1 0.35747576 0.03257513 2.3436058e-38
1 0.36914 0.028900227 2.3436058e-38
1 0.39072892 0.027768092 2.3436058e-38
1 0.4093017 0.027542803 2.3436058e-38
1 0.43088984 0.030673146 2.3436058e-38
1 0.45108965 0.029587056 2.3436058e-38
1 0.46876478 0.028632035 2.3436058e-38
1 0.48982543 0.029962983 2.3436058e-38
1 0.50937515 0.028207937 2.3436058e-38
1 0.5284726 0.030530358 2.3436058e-38
1 0.54857457 0.036025237 2.3436058e-38
1 0.57092386 0.032624066 2.3436058e-38
1 0.58921748 0.031449933 2.3436058e-38
1 0.61213887 0.027740002 2.3436058e-38
1 0.63107491 0.029125309 2.3436058e-38
1 0.652156 0.0308853 2.3436058e-38
1 0.66986012 0.030809447 2.3436058e-38
1 0.69179577 0.029516086 2.3436058e-38
1 0.71002668 0.029033883 2.3436058e-38
1 0.72890604 0.027959028 2.3436058e-38
1 0.75112391 0.030463815 2.3436058e-38
1 0.76926821 0.030179154 2.3436058e-38
1 0.78957647 0.029897319 2.3436058e-38
1 0.80623162 0.030745089 2.3436058e-38
1 0.82710779 0.034774065 2.3436058e-38
1 0.85031104 0.031930983 2.3436058e-38
1 0.86954725 0.030312022 2.3436058e-38
1 0.88847339 0.027572449 2.3436058e-38
1 0.91102934 0.031867027 2.3436058e-38
1 0.92615628 0.02820594 2.3436058e-38
1 0.95033491 0.028866887 2.3436058e-38
1 0.96831548 0.029028933 2.3436058e-38
1 0.99221528 0.027822733 2.3436058e-38
1 -0.99186844 0.051796436 2.3436058e-38
1 -0.97281182 0.053518295 2.3436058e-38
1 -0.94864881 0.052724361 2.3436058e-38
1 -0.92798871 0.053564444 2.3436058e-38
1 -0.90646446 0.050754547 2.3436058e-38
1 -0.89125621 0.051807955 2.3436058e-38
1 -0.8719638 0.051693439 2.3436058e-38
1 -0.85038817 0.050147194 2.3436058e-38
1 -0.82504189 0.052059107 2.3436058e-38
1 -0.80999988 0.050746683 2.3436058e-38
1 -0.79029763 0.05190298 2.3436058e-38
1 -0.76917088 0.047092598 2.3436058e-38
1 -0.7484678 0.04818058 2.3436058e-38
1 -0.72821259 0.044917848 2.3436058e-38
1 -0.71293545 0.050848484 2.3436058e-38
1 -0.69225419 0.050014019 2.3436058e-38
1 -0.6693731 0.051028866 2.3436058e-38
1 -0.64949322 0.052462418 2.3436058e-38
1 -0.62706542 0.051352441 2.3436058e-38
1 -0.60966712 0.050702386 2.3436058e-38
1 -0.59254265 0.048707187 2.3436058e-38
1 -0.56893498 0.050022691 2.3436058e-38
1 -0.54956299 0.050572753 2.3436058e-38
1 -0.52988577 0.048473306 2.3436058e-38
1 -0.51155579 0.051756825 2.3436058e-38
1 -0.48992199 0.048357725 2.3436058e-38
1 -0.46992558 0.053138893 2.3436058e-38
1 -0.45022711 0.048547577 2.3436058e-38
1 -0.43059468 0.049470291 2.3436058e-38
1 -0.40942329 0.050620209 2.3436058e-38
1 -0.39014924 0.04804524 2.3436058e-38
1 -0.37161922 0.052254379 2.3436058e-38
1 -0.34709013 0.051204033 2.3436058e-38
1 -0.32825667 0.051523048 2.3436058e-38
1 -0.3055582 0.052967846 2.3436058e-38
1 -0.28815731 0.04927969 2.3436058e-38
1 -0.27158222 0.048418961 2.3436058e-38
1 -0.25014874 0.051940989 2.3436058e-38
1 -0.22898805 0.049855322 2.3436058e-38
1 -0.21013547 0.046979524 2.3436058e-38
1 -0.18852061 0.051167011 2.3436058e-38
1 -0.16855155 0.048999734 2.3436058e-38
1 -0.14986669 0.04934809 2.3436058e-38
1 -0.13271169 0.051693782 2.3436058e-38
1 -0.10728198 0.048648357 2.3436058e-38
1 -0.088484205 0.051708311 2.3436058e-38
1 -0.072767779 0.049533151 2.3436058e-38
1 -0.051772356 0.047060158 2.3436058e-38
1 -0.030909756 0.047152087 2.3436058e-38
1 -0.0089179147 0.050077599 2.3436058e-38
1 0.011677054 0.052571405 2.3436058e-38
1 0.03193754 0.048600316 2.3436058e-38
1 0.050620973 0.050262451 2.3436058e-38
1 0.069214478 0.050413352 2.3436058e-38
1 0.08793509 0.051681757 2.3436058e-38
1 0.10934862 0.050139349 2.3436058e-38
1 0.12651663 0.049078226 2.3436058e-38
1 0.14876805 0.052202173 2.3436058e-38
1 0.16932881 0.050063491 2.3436058e-38
1 0.18878707 0.047610126 2.3436058e-38
1 0.21163678 0.050426006 2.3436058e-38
1 0.22804201 0.047899693 2.3436058e-38
1 0.25015715 0.050138105 2.3436058e-38
1 0.26878947 0.048885178 2.3436058e-38
1 0.28790382 0.050101761 2.3436058e-38
1 0.31128418 0.04813024 2.3436058e-38
1 0.3257426 0.049918115 2.3436058e-38
1 0.34897283 0.050525606 2.3436058e-38
1 0.36864054 0.050077975 2.3436058e-38
1 0.38928708 0.048443079 2.3436058e-38
1 0.4111746 0.049889237 2.3436058e-38
1 0.4327141 0.050328314 2.3436058e-38
1 0.44520468 0.048041292 2.3436058e-38
1 0.46858937 0.045998812 2.3436058e-38
1 0.48824295 0.051365547 2.3436058e-38
1 0.51137459 0.048703935 2.3436058e-38
1 0.53050059 0.051293533 2.3436058e-38
1 0.5495894 0.046848893 2.3436058e-38
1 0.57151401 0.053507686 2.3436058e-38
1 0.58920968 0.049183372 2.3436058e-38
1 0.61157346 0.048756268 2.3436058e-38
1 0.62942076 0.056796551 2.3436058e-38
1 0.65116787 0.05218818 2.3436058e-38
1 0.67161173 0.05115119 2.3436058e-38
1 0.68959701 0.051397961 2.3436058e-38
1 0.70951498 0.050481282 2.3436058e-38
1 0.73204106 0.048486661 2.3436058e-38
1 0.74772364 0.048895657 2.3436058e-38
1 0.77193034 0.051768064 2.3436058e-38
1 0.79130405 0.050724208 2.3436058e-38
1 0.8096081 0.050604772 2.3436058e-38
1 0.82809734 0.05245918 2.3436058e-38
1 0.85076475 0.048221208 2.3436058e-38
1 0.87094593 0.04954277 2.3436058e-38
1 0.89014459 0.049014434 2.3436058e-38
1 0.91078925 0.045974057 2.3436058e-38
1 0.9306401 0.049707919 2.3436058e-38
1 0.94893301 0.048177041 2.3436058e-38
1 0.96990222 0.048267748 2.3436058e-38
1 0.99026746 0.05219163 2.3436058e-38
1 -0.99031836 0.068754062 2.3436058e-38
1 -0.97071075 0.071278572 2.3436058e-38
1 -0.94805574 0.070071973 2.3436058e-38
1 -0.92604345 0.070910275 2.3436058e-38
1 -0.9078939 0.065756142 2.3436058e-38
1 -0.88784701 0.06943585 2.3436058e-38
1 -0.87146449 0.069255754 2.3436058e-38
1 -0.84900099 0.07068523 2.3436058e-38
1 -0.83215016 0.070241556 2.3436058e-38
1 -0.81235546 0.071007192 2.3436058e-38
1 -0.78977126 0.071898594 2.3436058e-38
1 -0.76887113 0.071095839 2.3436058e-38
1 -0.74980551 0.068282902 2.3436058e-38
1 -0.73214453 0.069077179 2.3436058e-38
1 -0.70957083 0.072846472 2.3436058e-38
1 -0.68992037 0.071148261 2.3436058e-38
1 -0.67000753 0.071167082 2.3436058e-38
1 -0.65299386 0.068068862 2.3436058e-38
1 -0.63173091 0.071007624 2.3436058e-38
1 -0.61246151 0.069318824 2.3436058e-38
1 -0.59459192 0.070327125 2.3436058e-38
1 -0.56988603 0.071149297 2.3436058e-38
1 -0.55137873 0.070372619 2.3436058e-38
1 -0.53052223 0.0689395 2.3436058e-38
1 -0.50808942 0.066924877 2.3436058e-38
1 -0.49011457 0.068577349 2.3436058e-38
1 -0.47047949 0.069058359 2.3436058e-38
1 -0.45169544 0.071213916 2.3436058e-38
1 -0.43112749 0.070023537 2.3436058e-38
1 -0.41214687 0.068157397 2.3436058e-38
1 -0.38977125 0.071057066 2.3436058e-38
1 -0.36815196 0.071005583 2.3436058e-38
1 -0.34818134 0.073908329 2.3436058e-38
1 -0.33489531 0.069346249 2.3436058e-38
1 -0.31152737 0.066044547 2.3436058e-38
1 -0.28957748 0.071486115 2.3436058e-38
1 -0.26957548 0.068164781 2.3436058e-38
1 -0.24658208 0.073809721 2.3436058e-38
1 -0.22838059 0.073933363 2.3436058e-38
1 -0.21036589 0.069122791 2.3436058e-38
1 -0.19138527 0.067099646 2.3436058e-38
1 -0.16987307 0.074222036 2.3436058e-38
1 -0.14896505 0.070847251 2.3436058e-38
1 -0.13100301 0.07014063 2.3436058e-38
1 -0.10905481 0.068945616 2.3436058e-38
1 -0.090459317 0.070781775 2.3436058e-38
1 -0.069904566 0.072112486 2.3436058e-38
1 -0.045858543 0.07186532 2.3436058e-38
1 -0.03118103 0.070350103 2.3436058e-38
1 -0.0099180937 0.066707909 2.3436058e-38
1 0.011661636 0.071513705 2.3436058e-38
1 0.031651497 0.070007086 2.3436058e-38
1 0.04876741 0.067358099 2.3436058e-38
1 0.070871413 0.069054842 2.3436058e-38
1 0.090671502 0.071017399 2.3436058e-38
1 0.11040201 0.070959568 2.3436058e-38
1 0.1310512 0.068542093 2.3436058e-38
1 0.15056284 0.071438789 2.3436058e-38
1 0.17120028 0.069828212 2.3436058e-38
1 0.19056897 0.073298596 2.3436058e-38
1 0.21296147 0.071938649 2.3436058e-38
1 0.22768831 0.071614109 2.3436058e-38
1 0.24982053 0.068422258 2.3436058e-38
1 0.26829892 0.071054392 2.3436058e-38
1 0.28881767 0.073389634 2.3436058e-38
1 0.30926302 0.069907293 2.3436058e-38
1 0.32928106 0.072427168 2.3436058e-38
1 0.34687623 0.069870159 2.3436058e-38
1 0.36994639 0.066124015 2.3436058e-38
1 0.39055878 0.069750398 2.3436058e-38
1 0.41039896 0.070422389 2.3436058e-38
1 0.42966741 0.069501065 2.3436058e-38
1 0.45055488 0.069893695 2.3436058e-38
1 0.47072446 0.071160182 2.3436058e-38
1 0.49247813 0.068224981 2.3436058e-38
1 0.51166314 0.068165854 2.3436058e-38
1 0.52864522 0.068604946 2.3436058e-38
1 0.55111992 0.06377697 2.3436058e-38
1 0.5714764 0.07156764 2.3436058e-38
1 0.58987266 0.06945949 2.3436058e-38
1 0.61280274 0.067416549 2.3436058e-38
1 0.63246012 0.069171607 2.3436058e-38
1 0.65199977 0.070054054 2.3436058e-38
1 0.6679796 0.069934465 2.3436058e-38
1 0.69007093 0.073411681 2.3436058e-38
1 0.7109741 0.072653532 2.3436058e-38
1 0.7272166 0.068037078 2.3436058e-38
1 0.75289536 0.070470989 2.3436058e-38
1 0.76752508 0.072205067 2.3436058e-38
1 0.78805828 0.071859926 2.3436058e-38
1 0.81120878 0.073543787 2.3436058e-38
1 0.82850349 0.069071986 2.3436058e-38
1 0.84730035 0.068799496 2.3436058e-38
1 0.86809969 0.068947688 2.3436058e-38
1 0.88893914 0.069566548 2.3436058e-38
1 0.91046798 0.067176089 2.3436058e-38
1 0.93127871 0.071376145 2.3436058e-38
1 0.95094013 0.071968317 2.3436058e-38
1 0.96949619 0.07013984 2.3436058e-38
1 0.98929739 0.06941326 2.3436058e-38
1 -0.98830849 0.089502551 2.3436058e-38
1 -0.97192931 0.088549696 2.3436058e-38
1 -0.9505403 0.09131965 2.3436058e-38
1 -0.92954946 0.087527372 2.3436058e-38
1 -0.90909976 0.087346993 2.3436058e-38
1 -0.88692087 0.092739299 2.3436058e-38
1 -0.86901379 0.089012861 2.3436058e-38
1 -0.85112339 0.088956356 2.3436058e-38
1 -0.83121693 0.092455462 2.3436058e-38
1 -0.81133246 0.090162992 2.3436058e-38
1 -0.78891259 0.091616511 2.3436058e-38
1 -0.77098209 0.085368536 2.3436058e-38
1 -0.75011533 0.091201842 2.3436058e-38
1 -0.73019743 0.091798067 2.3436058e-38
1 -0.71251965 0.093149401 2.3436058e-38
1 -0.68998796 0.091397174 2.3436058e-38
1 -0.67368793 0.091330901 2.3436058e-38
1 -0.65492475 0.08602722 2.3436058e-38
1 -0.63278461 0.089053422 2.3436058e-38
1 -0.60829079 0.087850854 2.3436058e-38
1 -0.58806002 0.091697007 2.3436058e-38
1 -0.57114553 0.089226425 2.3436058e-38
1 -0.55081689 0.085506797 2.3436058e-38
1 -0.52940607 0.089829534 2.3436058e-38
1 -0.5087049 0.092193462 2.3436058e-38
1 -0.49242055 0.093294695 2.3436058e-38
1 -0.4715358 0.088903211 2.3436058e-38
1 -0.45053634 0.090523675 2.3436058e-38
1 -0.43079311 0.093945988 2.3436058e-38
1 -0.4079484 0.088840827 2.3436058e-38
1 -0.38997903 0.092118837 2.3436058e-38
1 -0.36864141 0.089605033 2.3436058e-38
1 -0.35020578 0.090718344 2.3436058e-38
1 -0.32813492 0.088429742 2.3436058e-38
1 -0.30936909 0.088099957 2.3436058e-38
1 -0.29063332 0.090869166 2.3436058e-38
1 -0.26811638 0.088598587 2.3436058e-38
1 -0.25478634 0.092548691 2.3436058e-38
1 -0.23343366 0.086931914 2.3436058e-38
1 -0.20685667 0.091262825 2.3436058e-38
1 -0.1872396 0.088217132 2.3436058e-38
1 -0.17042623 0.092953995 2.3436058e-38
1 -0.15092556 0.086873904 2.3436058e-38
1 -0.12892398 0.088941261 2.3436058e-38
1 -0.10887641 0.088245526 2.3436058e-38
1 -0.091211751 0.087845616 2.3436058e-38
1 -0.06799563 0.087965176 2.3436058e-38
1 -0.051142037 0.090565503 2.3436058e-38
1 -0.027062364 0.089718394 2.3436058e-38
1 0.0087689292 0.091311298 2.3436058e-38
1 0.026736101 0.090009585 2.3436058e-38
1 0.049029496 0.092069529 2.3436058e-38
1 0.068812594 0.088973157 2.3436058e-38
1 0.091102265 0.089812182 2.3436058e-38
1 0.11253151 0.086980343 2.3436058e-38
1 0.12761196 0.092069075 2.3436058e-38
1 0.14816141 0.08839117 2.3436058e-38
1 0.16834417 0.087522253 2.3436058e-38
1 0.18925552 0.088720255 2.3436058e-38
1 0.21050744 0.087975144 2.3436058e-38
1 0.23297809 0.091203474 2.3436058e-38
1 0.2482914 0.09214554 2.3436058e-38
1 0.26964337 0.092176437 2.3436058e-38
1 0.29077733 0.086274043 2.3436058e-38
1 0.30829984 0.088525534 2.3436058e-38
1 0.33043471 0.088530615 2.3436058e-38
1 0.3489967 0.090410866 2.3436058e-38
1 0.3698236 0.091287509 2.3436058e-38
1 0.39112949 0.092911005 2.3436058e-38
1 0.41100061 0.089350708 2.3436058e-38
1 0.4309862 0.090662219 2.3436058e-38
1 0.45249921 0.091635227 2.3436058e-38
1 0.47044766 0.090372011 2.3436058e-38
1 0.48851603 0.091305971 2.3436058e-38
1 0.50918663 0.092838526 2.3436058e-38
1 0.52934235 0.088383161 2.3436058e-38
1 0.54897279 0.089059651 2.3436058e-38
1 0.57119626 0.088520691 2.3436058e-38
1 0.59027928 0.08970356 2.3436058e-38
1 0.6125716 0.089111201 2.3436058e-38
1 0.63068134 0.089324988 2.3436058e-38
1 0.64807189 0.08828564 2.3436058e-38
1 0.67154676 0.092116691 2.3436058e-38
1 0.69037783 0.09076272 2.3436058e-38
1 0.71173954 0.087686494 2.3436058e-38
1 0.73104566 0.087374307 2.3436058e-38
1 0.74702376 0.091818377 2.3436058e-38
1 0.77041787 0.089946665 2.3436058e-38
1 0.79149944 0.090485416 2.3436058e-38
1 0.81093919 0.090766467 2.3436058e-38
1 0.83066124 0.089522682 2.3436058e-38
1 0.84876841 0.08935304 2.3436058e-38
1 0.873308 0.089572847 2.3436058e-38
1 0.89725226 0.091338955 2.3436058e-38
1 0.91137373 0.090659142 2.3436058e-38
1 0.92880964 0.087233119 2.3436058e-38
1 0.95004278 0.090738773 2.3436058e-38
1 0.9695673 0.094382524 2.3436058e-38
1 0.98967683 0.090120129 2.3436058e-38
1 -0.98915547 0.11092651 2.3436058e-38
1 -0.96968168 0.11278264 2.3436058e-38
1 -0.94970167 0.11064322 2.3436058e-38
1 -0.92568588 0.10691691 2.3436058e-38
1 -0.91080302 0.10989442 2.3436058e-38
1 -0.88973808 0.11019405 2.3436058e-38
1 -0.86904746 0.11234774 2.3436058e-38
1 -0.84953928 0.1109243 2.3436058e-38
1 -0.82682836 0.11021575 2.3436058e-38
1 -0.81407458 0.10927013 2.3436058e-38
1 -0.79092991 0.10915804 2.3436058e-38
1 -0.76941955 0.10909134 2.3436058e-38
1 -0.7493875 0.10896796 2.3436058e-38
1 -0.727709 0.11231418 2.3436058e-38
1 -0.70948392 0.11058817 2.3436058e-38
1 -0.69445306 0.10684109 2.3436058e-38
1 -0.67088461 0.10874443 2.3436058e-38
1 -0.64893335 0.1100256 2.3436058e-38
1 -0.62841994 0.1109497 2.3436058e-38
1 -0.60649836 0.10870176 2.3436058e-38
1 -0.5930351 0.10883202 2.3436058e-38
1 -0.57405466 0.11097598 2.3436058e-38
1 -0.55279183 0.10979682 2.3436058e-38
1 -0.52703822 0.10979132 2.3436058e-38
1 -0.51163286 0.11097922 2.3436058e-38
1 -0.49066138 0.10485252 2.3436058e-38
1 -0.47187507 0.1147759 2.3436058e-38
1 -0.44886628 0.10615988 2.3436058e-38
1 -0.43173048 0.10805102 2.3436058e-38
1 -0.41060889 0.11053487 2.3436058e-38
1 -0.39069471 0.10881154 2.3436058e-38
1 -0.37068355 0.10812324 2.3436058e-38
1 -0.35056108 0.11061882 2.3436058e-38
1 -0.32950211 0.1086725 2.3436058e-38
1 -0.31384647 0.1060274 2.3436058e-38
1 -0.28947401 0.11237614 2.3436058e-38
1 -0.26806164 0.11205006 2.3436058e-38
1 -0.24929507 0.11474163 2.3436058e-38
1 -0.23044392 0.11153696 2.3436058e-38
1 -0.2108914 0.11122967 2.3436058e-38
1 -0.18890855 0.10876795 2.3436058e-38
1 -0.17235354 0.11111689 2.3436058e-38
1 -0.15635943 0.10829759 2.3436058e-38
1 -0.12921929 0.10808289 2.3436058e-38
1 -0.10863287 0.10929307 2.3436058e-38
1 -0.090336122 0.10889572 2.3436058e-38
1 -0.068834148 0.11188359 2.3436058e-38
1 -0.051628262 0.11421314 2.3436058e-38
1 -0.031413343 0.10611466 2.3436058e-38
1 -0.009155333 0.11306798 2.3436058e-38
1 0.007147653 0.11150517 2.3436058e-38
1 0.032552112 0.11058842 2.3436058e-38
1 0.051692646 0.10808095 2.3436058e-38
1 0.069279574 0.11083508 2.3436058e-38
1 0.090412892 0.11018188 2.3436058e-38
1 0.11104131 0.10949834 2.3436058e-38
1 0.13010469 0.11252017 2.3436058e-38
1 0.14901747 0.10846134 2.3436058e-38
1 0.1720731 0.10839552 2.3436058e-38
1 0.19133613 0.10750811 2.3436058e-38
1 0.20938456 0.11051721 2.3436058e-38
1 0.22711635 0.11125445 2.3436058e-38
1 0.2496572 0.11026016 2.3436058e-38
1 0.26706725 0.11076376 2.3436058e-38
1 0.28840208 0.10904364 2.3436058e-38
1 0.30747804 0.11134749 2.3436058e-38
1 0.32778668 0.11365716 2.3436058e-38
1 0.34457338 0.10808492 2.3436058e-38
1 0.3692511 0.11025567 2.3436058e-38
1 0.3925668 0.10963813 2.3436058e-38
1 0.41092992 0.10854638 2.3436058e-38
1 0.43035141 0.10968347 2.3436058e-38
1 0.44983664 0.10906201 2.3436058e-38
1 0.46890652 0.10710215 2.3436058e-38
1 0.48958516 0.11029764 2.3436058e-38
1 0.5118627 0.10868273 2.3436058e-38
1 0.52759969 0.11010779 2.3436058e-38
1 0.55022049 0.10863495 2.3436058e-38
1 0.5719592 0.10942491 2.3436058e-38
1 0.58983529 0.11218753 2.3436058e-38
1 0.61022055 0.10973134 2.3436058e-38
1 0.62969327 0.1089994 2.3436058e-38
1 0.65055257 0.11124707 2.3436058e-38
1 0.67053717 0.10947368 2.3436058e-38
1 0.69057852 0.11191249 2.3436058e-38
1 0.71065539 0.11160027 2.3436058e-38
1 0.73103839 0.10933498 2.3436058e-38
1 0.75135201 0.11094725 2.3436058e-38
1 0.77095562 0.11049972 2.3436058e-38
1 0.7881254 0.10837549 2.3436058e-38
1 0.81218559 0.10898291 2.3436058e-38
1 0.8305859 0.10822801 2.3436058e-38
1 0.85114712 0.11083399 2.3436058e-38
1 0.87022519 0.10744826 2.3436058e-38
1 0.89598739 0.11257899 2.3436058e-38
1 0.90766329 0.10726032 2.3436058e-38
1 0.92855334 0.10866889 2.3436058e-38
1 0.94575673 0.11012769 2.3436058e-38
1 0.97024721 0.11043976 2.3436058e-38
1 0.99216312 0.10994472 2.3436058e-38
1 -0.99056667 0.13275404 2.3436058e-38
1 -0.96993494 0.13033879 2.3436058e-38
1 -0.94882596 0.12618378 2.3436058e-38
1 -0.93328774 0.13012165 2.3436058e-38
1 -0.91035628 0.128589 2.3436058e-38
1 -0.88844365 0.12920403 2.3436058e-38
1 -0.8716073 0.13387224 2.3436058e-38
1 -0.85624337 0.12955117 2.3436058e-38
1 -0.83133143 0.12870955 2.3436058e-38
1 -0.81018734 0.13249809 2.3436058e-38
1 -0.79258192 0.12901835 2.3436058e-38
1 -0.77156693 0.12971111 2.3436058e-38
1 -0.75042629 0.12593238 2.3436058e-38
1 -0.73006362 0.1282226 2.3436058e-38
1 -0.7115283 0.12649909 2.3436058e-38
1 -0.69002914 0.1327115 2.3436058e-38
1 -0.66720617 0.13026516 2.3436058e-38
1 -0.6502111 0.13052851 2.3436058e-38
1 -0.62834537 0.13232552 2.3436058e-38
1 -0.61134255 0.12945496 2.3436058e-38
1 -0.59214509 0.12682301 2.3436058e-38
1 -0.5696854 0.13145638 2.3436058e-38
1 -0.54918325 0.13042136 2.3436058e-38
1 -0.5301854 0.12875284 2.3436058e-38
1 -0.50988406 0.13075243 2.3436058e-38
1 -0.49147674 0.13068506 2.3436058e-38
1 -0.47249615 0.12884283 2.3436058e-38
1 -0.45046318 0.12963443 2.3436058e-38
1 -0.431559 0.12732382 2.3436058e-38
1 -0.41115782 0.13199416 2.3436058e-38
1 -0.38987705 0.12589426 2.3436058e-38
1 -0.36735535 0.13094629 2.3436058e-38
1 -0.35034457 0.13311031 2.3436058e-38
1 -0.33050275 0.13056426 2.3436058e-38
1 -0.30961829 0.12806816 2.3436058e-38
1 -0.29396057 0.13094512 2.3436058e-38
1 -0.27171415 0.13169654 2.3436058e-38
1 -0.2495755 0.13170061 2.3436058e-38
1 -0.23049824 0.12778819 2.3436058e-38
1 -0.21079135 0.12855911 2.3436058e-38
1 -0.1897403 0.1310799 2.3436058e-38
1 -0.1676541 0.13030487 2.3436058e-38
1 -0.15022683 0.13109152 2.3436058e-38
1 -0.12910207 0.12916474 2.3436058e-38
1 -0.10902172 0.13115191 2.3436058e-38
1 -0.087984852 0.13159709 2.3436058e-38
1 -0.069059566 0.13123952 2.3436058e-38
1 -0.045423985 0.12813133 2.3436058e-38
1 -0.029886151 0.12852374 2.3436058e-38
1 -0.0062379241 0.13486123 2.3436058e-38
1 0.011160183 0.12914515 2.3436058e-38
1 0.030048817 0.12788752 2.3436058e-38
1 0.049054146 0.12677842 2.3436058e-38
1 0.06949155 0.13060229 2.3436058e-38
1 0.09000466 0.13068151 2.3436058e-38
1 0.11229978 0.12943654 2.3436058e-38
1 0.13096151 0.12602815 2.3436058e-38
1 0.15076213 0.12766881 2.3436058e-38
1 0.16964376 0.12812972 2.3436058e-38
1 0.1886341 0.13203152 2.3436058e-38
1 0.20778036 0.1300211 2.3436058e-38
1 0.23018044 0.13030311 2.3436058e-38
1 0.24854328 0.12940316 2.3436058e-38
1 0.26948822 0.13335052 2.3436058e-38
1 0.28826758 0.12842751 2.3436058e-38
1 0.31390488 0.13018724 2.3436058e-38
1 0.32995442 0.13015231 2.3436058e-38
1 0.35047004 0.12873711 2.3436058e-38
1 0.37075901 0.13000883 2.3436058e-38
1 0.392232 0.12956949 2.3436058e-38
1 0.40801287 0.13252783 2.3436058e-38
1 0.42847419 0.13346599 2.3436058e-38
1 0.4495219 0.13055903 2.3436058e-38
1 0.47251654 0.12876129 2.3436058e-38
1 0.48791224 0.13011856 2.3436058e-38
1 0.50782365 0.13050222 2.3436058e-38
1 0.52936 0.12800485 2.3436058e-38
1 0.54981261 0.12891646 2.3436058e-38
1 0.56792587 0.12604809 2.3436058e-38
1 0.5888412 0.13055754 2.3436058e-38
1 0.60881966 0.13199645 2.3436058e-38
1 0.62948668 0.12706184 2.3436058e-38
1 0.65262955 0.1313976 2.3436058e-38
1 0.67065084 0.13111937 2.3436058e-38
1 0.68829018 0.13033321 2.3436058e-38
1 0.71375281 0.13043457 2.3436058e-38
1 0.72940344 0.12752953 2.3436058e-38
1 0.74912381 0.12952729 2.3436058e-38
1 0.77215081 0.13114002 2.3436058e-38
1 0.78878158 0.13217798 2.3436058e-38
1 0.81107539 0.1305524 2.3436058e-38
1 0.82971144 0.12847714 2.3436058e-38
1 0.85299367 0.12892731 2.3436058e-38
1 0.86748505 0.12911682 2.3436058e-38
1 0.88900697 0.13420324 2.3436058e-38
1 0.90787715 0.12910104 2.3436058e-38
1 0.93182015 0.13114429 2.3436058e-38
1 0.94955456 0.1325064 2.3436058e-38
1 0.96581757 0.12752597 2.3436058e-38
1 0.98984611 0.1298539 2.3436058e-38
1 -0.9865635 0.14988689 2.3436058e-38
1 -0.96897072 0.14969115 2.3436058e-38
1 -0.95038259 0.14797187 2.3436058e-38
1 -0.92940867 0.15000425 2.3436058e-38
1 -0.91302663 0.14952877 2.3436058e-38
1 -0.89340514 0.15176079 2.3436058e-38
1 -0.87129676 0.14858675 2.3436058e-38
1 -0.85104144 0.14840761 2.3436058e-38
1 -0.83013386 0.15104979 2.3436058e-38
1 -0.81130666 0.14960423 2.3436058e-38
1 -0.78962779 0.14961165 2.3436058e-38
1 -0.77137166 0.14903477 2.3436058e-38
1 -0.74935025 0.14885387 2.3436058e-38
1 -0.73063183 0.14864582 2.3436058e-38
1 -0.70910561 0.14556563 2.3436058e-38
1 -0.68983513 0.14873643 2.3436058e-38
1 -0.66742158 0.15239763 2.3436058e-38
1 -0.65065926 0.14741898 2.3436058e-38
1 -0.63106805 0.14921264 2.3436058e-38
1 -0.61050695 0.14898062 2.3436058e-38
1 -0.59040803 0.15011226 2.3436058e-38
1 -0.56695437 0.15311404 2.3436058e-38
1 -0.54912531 0.15007691 2.3436058e-38
1 -0.52772683 0.14868741 2.3436058e-38
1 -0.51074964 0.15200393 2.3436058e-38
1 -0.4882164 0.15141125 2.3436058e-38
1 -0.47145522 0.15091521 2.3436058e-38
1 -0.45016283 0.14811663 2.3436058e-38
1 -0.43017048 0.14988887 2.3436058e-38
1 -0.41201958 0.14944446 2.3436058e-38
1 -0.38823119 0.14753512 2.3436058e-38
1 -0.37124258 0.14930493 2.3436058e-38
1 -0.34728503 0.14674354 2.3436058e-38
1 -0.33025676 0.1467292 2.3436058e-38
1 -0.3115012 0.14986567 2.3436058e-38
1 -0.29276454 0.15039387 2.3436058e-38
1 -0.26864529 0.15103468 2.3436058e-38
1 -0.24932262 0.14756176 2.3436058e-38
1 -0.22874665 0.14888418 2.3436058e-38
1 -0.21026063 0.15052485 2.3436058e-38
1 -0.1920491 0.15079775 2.3436058e-38
1 -0.17115165 0.14936638 2.3436058e-38
1 -0.15087909 0.1479125 2.3436058e-38
1 -0.1311121 0.14833409 2.3436058e-38
1 -0.11101437 0.14872572 2.3436058e-38
1 -0.091383815 0.15069497 2.3436058e-38
1 -0.070854247 0.15283436 2.3436058e-38
1 -0.050385274 0.14928144 2.3436058e-38
1 -0.030189643 0.15281411 2.3436058e-38
1 -0.0087334719 0.15077889 2.3436058e-38
1 0.010437455 0.15041304 2.3436058e-38
1 0.029828332 0.14888906 2.3436058e-38
1 0.051046032 0.15065828 2.3436058e-38
1 0.069868281 0.15376072 2.3436058e-38
1 0.089480884 0.14904289 2.3436058e-38
1 0.10875205 0.14794312 2.3436058e-38
1 0.13214248 0.14974779 2.3436058e-38
1 0.14935121 0.15054843 2.3436058e-38
1 0.17121494 0.15071225 2.3436058e-38
1 0.19184691 0.14458323 2.3436058e-38
1 0.2101803 0.14859493 2.3436058e-38
1 0.2281345 0.14905596 2.3436058e-38
1 0.24865294 0.14782672 2.3436058e-38
1 0.27074996 0.15196255 2.3436058e-38
1 0.28998828 0.14690995 2.3436058e-38
1 0.30718121 0.15131895 2.3436058e-38
1 0.33025998 0.15180898 2.3436058e-38
1 0.34900734 0.15044415 2.3436058e-38
1 0.36829895 0.14751236 2.3436058e-38
1 0.39157316 0.1464368 2.3436058e-38
1 0.40763548 0.14877215 2.3436058e-38
1 0.42938185 0.1445249 2.3436058e-38
1 0.45322412 0.15322828 2.3436058e-38
1 0.46903017 0.1503235 2.3436058e-38
1 0.4896217 0.15074836 2.3436058e-38
1 0.51106483 0.15100306 2.3436058e-38
1 0.5299921 0.15199785 2.3436058e-38
1 0.54931408 0.14999521 2.3436058e-38
1 0.57136697 0.15191561 2.3436058e-38
1 0.58584613 0.14994149 2.3436058e-38
1 0.61156338 0.15280676 2.3436058e-38
1 0.63032079 0.14654402 2.3436058e-38
1 0.65154338 0.14993985 2.3436058e-38
1 0.66854018 0.14971651 2.3436058e-38
1 0.68927854 0.14880297 2.3436058e-38
1 0.71114683 0.15018387 2.3436058e-38
1 0.73059011 0.1490984 2.3436058e-38
1 0.75293618 0.15000603 2.3436058e-38
1 0.77128482 0.14978354 2.3436058e-38
1 0.78848994 0.14744818 2.3436058e-38
1 0.80828255 0.14906836 2.3436058e-38
1 0.82800096 0.147451 2.3436058e-38
1 0.84976739 0.14859746 2.3436058e-38
1 0.86761779 0.1507567 2.3436058e-38
1 0.88906896 0.14664444 2.3436058e-38
1 0.90965551 0.14973183 2.3436058e-38
1 0.93232566 0.1511112 2.3436058e-38
1 0.94920123 0.15067801 2.3436058e-38
1 0.96748775 0.14726296 2.3436058e-38
1 0.99017978 0.14843069 2.3436058e-38
1 -0.98921204 0.16894357 2.3436058e-38
1 -0.96991849 0.17152999 2.3436058e-38
1 -0.95077431 0.17257372 2.3436058e-38
1 -0.93101329 0.16760793 2.3436058e-38
1 -0.90778679 0.16812491 2.3436058e-38
1 -0.89041203 0.16578934 2.3436058e-38
1 -0.86793703 0.17121802 2.3436058e-38
1 -0.84974384 0.16985163 2.3436058e-38
1 -0.83051413 0.16894613 2.3436058e-38
1 -0.80829203 0.16991006 2.3436058e-38
1 -0.791471 0.173141 2.3436058e-38
1 -0.76772904 0.17009003 2.3436058e-38
1 -0.75042778 0.17043994 2.3436058e-38
1 -0.73198336 0.17096478 2.3436058e-38
1 -0.70663404 0.16618252 2.3436058e-38
1 -0.69066823 0.17112689 2.3436058e-38
1 -0.66991121 0.17008612 2.3436058e-38
1 -0.6524635 0.16760339 2.3436058e-38
1 -0.6290397 0.16851848 2.3436058e-38
1 -0.60821259 0.17021444 2.3436058e-38
1 -0.59003055 0.16838028 2.3436058e-38
1 -0.57033473 0.16680166 2.3436058e-38
1 -0.55069643 0.17031401 2.3436058e-38
1 -0.52961504 0.16878761 2.3436058e-38
1 -0.50851053 0.16935396 2.3436058e-38
1 -0.49184614 0.16804613 2.3436058e-38
1 -0.46975756 0.16306983 2.3436058e-38
1 -0.44857243 0.16792743 2.3436058e-38
1 -0.42868239 0.16812178 2.3436058e-38
1 -0.40960518 0.16917835 2.3436058e-38
1 -0.3886455 0.16938691 2.3436058e-38
1 -0.36852607 0.16741368 2.3436058e-38
1 -0.34881502 0.16965508 2.3436058e-38
1 -0.33062935 0.16781397 2.3436058e-38
1 -0.31490034 0.17172503 2.3436058e-38
1 -0.29048148 0.16659494 2.3436058e-38
1 -0.2719537 0.17111139 2.3436058e-38
1 -0.24311528 0.16967583 2.3436058e-38
1 -0.23075868 0.17350546 2.3436058e-38
1 -0.20692611 0.17259797 2.3436058e-38
1 -0.18906574 0.16774197 2.3436058e-38
1 -0.16802073 0.16881052 2.3436058e-38
1 -0.15084949 0.17156561 2.3436058e-38
1 -0.1294055 0.16907176 2.3436058e-38
1 -0.11035113 0.17114544 2.3436058e-38
1 -0.093581013 0.17160664 2.3436058e-38
1 -0.070817314 0.17124495 2.3436058e-38
1 -0.051347993 0.17116188 2.3436058e-38
1 -0.031823754 0.1681307 2.3436058e-38
1 -0.0086759329 0.16973393 2.3436058e-38
1 0.012657098 0.17147583 2.3436058e-38
1 0.030774228 0.16956711 2.3436058e-38
1 0.049611483 0.17122672 2.3436058e-38
1 0.07064569 0.17115664 2.3436058e-38
1 0.092731409 0.16857986 2.3436058e-38
1 0.1118536 0.17210405 2.3436058e-38
1 0.13083288 0.17029947 2.3436058e-38
1 0.15092435 0.169093 2.3436058e-38
1 0.17102464 0.17014779 2.3436058e-38
1 0.19033466 0.17214265 2.3436058e-38
1 0.20620039 0.16865228 2.3436058e-38
1 0.23036188 0.1730708 2.3436058e-38
1 0.24779126 0.17111067 2.3436058e-38
1 0.26897952 0.1697243 2.3436058e-38
1 0.29072279 0.17151669 2.3436058e-38
1 0.30819592 0.1711071 2.3436058e-38
1 0.33116874 0.17198113 2.3436058e-38
1 0.3541106 0.16889779 2.3436058e-38
1 0.36759448 0.17098136 2.3436058e-38
1 0.38560894 0.16546901 2.3436058e-38
1 0.40939587 0.16935325 2.3436058e-38
1 0.43107605 0.17164345 2.3436058e-38
1 0.45245236 0.1703736 2.3436058e-38
1 0.47047016 0.17266873 2.3436058e-38
1 0.48698983 0.17391738 2.3436058e-38
1 0.51058662 0.1691099 2.3436058e-38
1 0.52976078 0.17115241 2.3436058e-38
1 0.55003446 0.1709609 2.3436058e-38
1 0.5699439 0.1687406 2.3436058e-38
1 0.58871442 0.16970618 2.3436058e-38
1 0.60642534 0.17096202 2.3436058e-38
1 0.62946397 0.17343393 2.3436058e-38
1 0.64645946 0.16769117 2.3436058e-38
1 0.66691941 0.16910039 2.3436058e-38
1 0.69054157 0.16984169 2.3436058e-38
1 0.71103889 0.17144418 2.3436058e-38
1 0.72814429 0.16599962 2.3436058e-38
1 0.74706531 0.17191637 2.3436058e-38
1 0.77072084 0.16975529 2.3436058e-38
1 0.79014969 0.16917109 2.3436058e-38
1 0.81174219 0.17194256 2.3436058e-38
1 0.83034724 0.17009197 2.3436058e-38
1 0.85061252 0.17179468 2.3436058e-38
1 0.87032312 0.17099167 2.3436058e-38
1 0.89184797 0.16810417 2.3436058e-38
1 0.91084462 0.16957532 2.3436058e-38
1 0.93218446 0.17381102 2.3436058e-38
1 0.95054382 0.16797502 2.3436058e-38
1 0.96650565 0.16827665 2.3436058e-38
1 0.98962468 0.17010224 2.3436058e-38
1 -0.98967206 0.19100766 2.3436058e-38
1 -0.97112691 0.19299264 2.3436058e-38
1 -0.94806969 0.18660969 2.3436058e-38
1 -0.93598098 0.1937499 2.3436058e-38
1 -0.90834868 0.18692631 2.3436058e-38
1 -0.89008331 0.18766469 2.3436058e-38
1 -0.87039965 0.19076839 2.3436058e-38
1 -0.84819722 0.19181964 2.3436058e-38
1 -0.82889926 0.19065015 2.3436058e-38
1 -0.80872965 0.1909719 2.3436058e-38
1 -0.78780288 0.18795873 2.3436058e-38
1 -0.76713157 0.19131331 2.3436058e-38
1 -0.74862289 0.19253659 2.3436058e-38
1 -0.73120737 0.18743801 2.3436058e-38
1 -0.71027869 0.18992575 2.3436058e-38
1 -0.68944997 0.19073895 2.3436058e-38
1 -0.66852784 0.18896127 2.3436058e-38
1 -0.64838123 0.19033499 2.3436058e-38
1 -0.63113922 0.18747611 2.3436058e-38
1 -0.60995549 0.1929841 2.3436058e-38
1 -0.59015429 0.18997948 2.3436058e-38
1 -0.56876153 0.18945786 2.3436058e-38
1 -0.54931653 0.19356886 2.3436058e-38
1 -0.52824718 0.19010615 2.3436058e-38
1 -0.51269871 0.1898482 2.3436058e-38
1 -0.48850775 0.18902306 2.3436058e-38
1 -0.47326088 0.18767202 2.3436058e-38
1 -0.45054504 0.19250087 2.3436058e-38
1 -0.4293851 0.19078332 2.3436058e-38
1 -0.40934843 0.18773681 2.3436058e-38
1 -0.38956305 0.19049835 2.3436058e-38
1 -0.36924544 0.18962441 2.3436058e-38
1 -0.34901109 0.18793468 2.3436058e-38
1 -0.33251736 0.19231014 2.3436058e-38
1 -0.31084266 0.18984313 2.3436058e-38
1 -0.28896236 0.19313531 2.3436058e-38
1 -0.27314076 0.19242963 2.3436058e-38
1 -0.24750216 0.19140318 2.3436058e-38
1 -0.22736251 0.19051622 2.3436058e-38
1 -0.21198808 0.18560664 2.3436058e-38
1 -0.18808563 0.19187021 2.3436058e-38
1 -0.16811466 0.18822517 2.3436058e-38
1 -0.15089746 0.18888415 2.3436058e-38
1 -0.12983009 0.19298452 2.3436058e-38
1 -0.11049268 0.18805571 2.3436058e-38
1 -0.09227594 0.18821752 2.3436058e-38
1 -0.069075055 0.18783374 2.3436058e-38
1 -0.049329799 0.18959436 2.3436058e-38
1 -0.031056337 0.18985435 2.3436058e-38
1 -0.0095573366 0.19007528 2.3436058e-38
1 0.0095992889 0.18879414 2.3436058e-38
1 0.030648828 0.19529998 2.3436058e-38
1 0.049204826 0.18450546 2.3436058e-38
1 0.069775857 0.18969427 2.3436058e-38
1 0.087656692 0.18696056 2.3436058e-38
1 0.11118762 0.19356307 2.3436058e-38
1 0.129474 0.18811433 2.3436058e-38
1 0.14759767 0.18919969 2.3436058e-38
1 0.17050256 0.1860874 2.3436058e-38
1 0.1899893 0.1915752 2.3436058e-38
1 0.20990898 0.1914302 2.3436058e-38
1 0.23101096 0.19146295 2.3436058e-38
1 0.25162214 0.19400279 2.3436058e-38
1 0.27099144 0.18897124 2.3436058e-38
1 0.28914517 0.18920374 2.3436058e-38
1 0.30874929 0.19225807 2.3436058e-38
1 0.32893038 0.19287844 2.3436058e-38
1 0.34620929 0.19149321 2.3436058e-38
1 0.37041163 0.19100317 2.3436058e-38
1 0.38998827 0.18953064 2.3436058e-38
1 0.41427866 0.18823829 2.3436058e-38
1 0.42717063 0.1890099 2.3436058e-38
1 0.44923949 0.18653053 2.3436058e-38
1 0.47007668 0.19415018 2.3436058e-38
1 0.49159235 0.18746649 2.3436058e-38
1 0.51045513 0.18951903 2.3436058e-38
1 0.53098327 0.18650122 2.3436058e-38
1 0.5483892 0.18996203 2.3436058e-38
1 0.57024479 0.18851504 2.3436058e-38
1 0.58851647 0.19119674 2.3436058e-38
1 0.6107198 0.1909918 2.3436058e-38
1 0.62976652 0.18930921 2.3436058e-38
1 0.64987326 0.19279073 2.3436058e-38
1 0.66785049 0.19190899 2.3436058e-38
1 0.69048238 0.18813695 2.3436058e-38
1 0.71091527 0.19033046 2.3436058e-38
1 0.72832197 0.19156171 2.3436058e-38
1 0.75189531 0.18595438 2.3436058e-38
1 0.77183026 0.18914966 2.3436058e-38
1 0.78848052 0.1914615 2.3436058e-38
