# .PCD v0.7 - Point Cloud Data file format
VERSION 0.7
FIELDS x y z rgb
SIZE 4 4 4 4
TYPE F F F F
COUNT 1 1 1 1
WIDTH 1018
HEIGHT 1
VIEWPOINT 0 0 0 1 0 0 0
POINTS 1018
DATA ascii
0.84794068 -0.26240447 3.0125334 1.6316819e-38
0.87237012 -0.26279685 3.0129037 1.6039876e-38
0.89272159 -0.26293147 3.0137811 1.5856206e-38
0.91011041 -0.26315397 3.0142128 1.5763656e-38
0.92749906 -0.26337644 3.0146444 1.5579978e-38
0.94962579 -0.26363489 3.0152667 1.5487422e-38
0.97067726 -0.26376483 3.0162017 1.5211197e-38
1.050777 -0.26576802 3.0152938 1.4749853e-38
1.0699228 -0.26642364 3.0145535 1.493281e-38
-0.96316141 -0.22483982 3.0101843 1.2871641e-39
-0.89015156 -0.22640795 3.0101197 4.700531e-39
-0.86901635 -0.22698991 3.009722 5.1615119e-39
-0.85118222 -0.22772534 3.0086632 7.3738427e-39
-0.69919032 -0.230939 3.0086792 7.5596689e-39
-0.068778917 -0.24292336 3.0127273 1.1523003e-38
0.41655874 -0.25214985 3.0158439 1.567144e-38
0.42447186 -0.25230026 3.0158947 1.6132771e-38
-1.002182 -0.22229643 3.0152674 3.6806646e-40
-0.98929161 -0.22282973 3.0144968 9.18397e-41
-0.97132528 -0.22333327 3.0141325 9.1835496e-41
-0.95022357 -0.22373441 3.0142679 6.4393028e-40
-0.9297654 -0.22393632 3.0149529 3.6806786e-40
-0.910658 -0.22448675 3.0145216 1.8431811e-39
-0.89383554 -0.22543712 3.0127628 4.0576727e-39
-0.86566657 -0.22615282 3.0124104 4.5168614e-39
-0.85775346 -0.22630322 3.0124612 4.3317555e-39
0.47690502 -0.24805339 3.0317552 1.585691e-38
0.48222774 -0.24815455 3.0317893 1.5673242e-38
0.5194869 -0.24886289 3.0320284 1.6133497e-38
0.53013235 -0.24906524 3.0320969 1.6315736e-38
0.5407778 -0.24926764 3.0321653 1.6223544e-38
0.6658619 -0.25164551 3.0329685 1.631898e-38
0.68589813 -0.25243542 3.0318863 9.2913095e-41
0.75378823 -0.25386235 3.0319185 1.650157e-38
0.77507913 -0.2542671 3.0320554 1.6409375e-38
0.78431803 -0.2540338 3.0333254 1.6316824e-38
-0.24991748 -0.23278187 3.0313933 1.1615922e-38
-0.22871087 -0.23273054 3.0328748 1.1524085e-38
-0.20892571 -0.23359746 3.031549 1.1708478e-38
-0.19133371 -0.23407733 3.0312314 1.1708483e-38
-0.16937521 -0.23418072 3.0323021 1.1708837e-38
-0.14879908 -0.23463143 3.0322578 1.1708478e-38
-0.13092126 -0.23501803 3.0322342 1.1800316e-38
-0.10975225 -0.23544639 3.0322933 1.1616282e-38
-0.096546613 -0.23515226 3.0339923 1.1616281e-38
-0.029108489 -0.23652506 3.0341566 1.1431164e-38
-0.010091514 -0.23692556 3.0341635 1.1338967e-38
0.010533143 -0.23736957 3.034142 1.1338608e-38
0.032102909 -0.23768871 3.0345497 1.1430085e-38
0.050732464 -0.23804285 3.0346692 1.1338961e-38
0.069362015 -0.238397 3.0347888 1.1430794e-38
0.090683296 -0.23896596 3.0344415 1.1430794e-38
0.11225643 -0.2393034 3.0347953 1.1430435e-38
0.13057344 -0.23956068 3.035182 1.1430794e-38
0.1475758 -0.23972033 3.0357754 1.1522633e-38
0.1704433 -0.24004608 3.0362451 1.1338958e-38
0.19335127 -0.24059053 3.0360694 1.1063462e-38
0.20933971 -0.24100351 3.0358491 1.0326262e-38
0.23065087 -0.24151774 3.0356631 9.1277289e-39
0.25221029 -0.24241836 3.0343485 8.2043377e-39
0.26630303 -0.24214107 3.0360534 7.7437168e-39
0.45099163 -0.24559738 3.037401 1.5856548e-38
0.46980861 -0.24655515 3.0357456 1.5948029e-38
0.48917687 -0.24680647 3.036216 1.5948395e-38
0.50863904 -0.24756581 3.035188 1.6225335e-38
0.53003114 -0.24851799 3.0337107 1.6591964e-38
0.55120057 -0.24826586 3.0357842 1.640937e-38
0.56915635 -0.24784377 3.0381596 1.668524e-38
0.59212297 -0.24829598 3.0382612 1.6501942e-38
0.60826313 -0.24850556 3.0386529 1.6132802e-38
0.628694 -0.24938075 3.0373428 1.4660172e-38
0.65073574 -0.25015807 3.0364234 1.6778156e-38
0.66483992 -0.25089896 3.0351145 1.6594122e-38
0.69237447 -0.2516042 3.0347531 4.2038954e-45
0.70699966 -0.25079146 3.0380762 1.5486697e-38
0.7346527 -0.25077188 3.0398681 1.6777081e-38
0.74988556 -0.25187936 3.0375443 1.6685594e-38
0.79350632 -0.25352675 3.0354025 1.6409375e-38
0.80820388 -0.25310493 3.0375729 1.659269e-38
0.83207893 -0.25273299 3.0401709 1.6409019e-38
0.85289824 -0.25345597 3.039336 1.6316463e-38
0.86975205 -0.25404122 3.03866 1.6315748e-38
0.88906246 -0.25397983 3.0400524 1.6131714e-38
0.91030282 -0.25411108 3.0409961 1.5764368e-38
0.93159372 -0.25451583 3.0411327 1.5764011e-38
0.95022327 -0.25487 3.0412524 1.5487781e-38
0.96885282 -0.25522417 3.0413718 1.539523e-38
0.99014372 -0.25562891 3.0415087 1.5211194e-38
1.0566779 -0.25689375 3.0419359 1.5301231e-38
1.0700352 -0.25742021 3.0412147 1.4658379e-38
-0.88381141 -0.21809557 3.0351257 4.1484446e-39
-0.85119474 -0.21907204 3.0342798 5.8990686e-39
-0.83128566 -0.22009382 3.0325034 8.2957822e-39
-0.80909085 -0.22060658 3.0323768 7.8355313e-39
-0.78780001 -0.22101133 3.0325136 7.7437056e-39
-0.76809573 -0.22144045 3.0324786 7.4678306e-39
-0.75167418 -0.2217371 3.0326302 7.3752776e-39
-0.72745889 -0.22224937 3.0326321 7.375279e-39
-0.70913577 -0.22231206 3.0335953 7.4671131e-39
-0.69470274 -0.22250861 3.0339184 7.4674733e-39
-0.32999453 -0.22998714 3.0346458 1.1431531e-38
-0.086786233 -0.23439248 3.0368536 1.1615561e-38
-0.069281936 -0.23439813 3.0379345 1.1431169e-38
-0.050601788 -0.23502578 3.0372474 1.1431168e-38
-0.034583006 -0.23560305 3.0365429 1.1431166e-38
0.015982933 -0.23656437 3.0368676 1.1429366e-38
0.031951122 -0.23686789 3.0369701 1.1337169e-38
0.053242046 -0.23727264 3.0371068 1.1337874e-38
0.066548869 -0.23752563 3.0371923 1.1429715e-38
0.17566483 -0.23959997 3.0378931 1.1061661e-38
0.18364894 -0.23975174 3.0379443 1.0694318e-38
0.21558532 -0.24035889 3.0381494 8.7582359e-39
0.22725484 -0.24036247 3.0388703 7.6504464e-39
0.25535399 -0.2402968 3.0408266 8.0199422e-39
0.26599947 -0.24049918 3.040895 8.1121378e-39
0.40703496 -0.24308951 3.0420694 1.567144e-38
0.43647861 -0.24455813 3.0395677 1.5856547e-38
0.61212873 -0.24789731 3.0406957 1.7423529e-38
0.71326059 -0.24981984 3.0413451 1.6869279e-38
0.72922879 -0.25012344 3.0414476 1.6777082e-38
0.74253565 -0.2503764 3.041533 1.6777081e-38
0.85431296 -0.25250137 3.0422509 1.6316108e-38
0.91286302 -0.2536144 3.0426269 1.5856201e-38
-0.90897125 -0.21589027 3.040077 9.219549e-40
-0.89010382 -0.216662 3.0389752 3.5027039e-39
-0.87075758 -0.21698029 3.0392458 4.1477061e-39
-0.86829859 -0.21593647 3.0424905 7.3468397e-40
0.78603196 -0.24557118 3.058486 1.65005e-38
-0.15003127 -0.2259881 3.0577688 1.1708476e-38
-0.013094958 -0.22859135 3.0586481 1.1340037e-38
0.23929743 -0.23338938 3.0602689 8.0210226e-39
0.24735253 -0.23354256 3.0603206 7.1909032e-39
0.46483958 -0.23767708 3.0617173 1.5764358e-38
0.51544064 -0.23929918 3.0600874 1.6316813e-38
0.53211838 -0.23978135 3.059706 1.6409007e-38
0.54996753 -0.23984556 3.0606351 1.6409372e-38
0.5641855 -0.23956569 3.062355 1.6501923e-38
0.63399619 -0.2408928 3.0628035 1.7423515e-38
0.65010631 -0.24119903 3.0629067 1.687107e-38
0.6689781 -0.24197046 3.0618064 1.6685963e-38
0.69595593 -0.24317108 3.0599437 6.1821224e-39
0.70440513 -0.24256141 3.0622783 1.5762559e-38
0.75482237 -0.24318977 3.0635793 1.650157e-38
0.76834965 -0.24399708 3.0620372 1.6593407e-38
0.78720593 -0.24468569 3.0611811 1.6592692e-38
0.80948591 -0.24459572 3.0628445 1.6593047e-38
0.824633 -0.24451688 3.0640275 1.6409377e-38
0.87833351 -0.24553777 3.0643723 1.6316827e-38
0.88370359 -0.24563985 3.0644069 1.6316461e-38
-0.84224725 -0.21081148 3.0592961 5.5270406e-39
-0.82970005 -0.21114171 3.0591052 6.7291683e-39
-0.81090486 -0.21149902 3.0592258 8.019561e-39
-0.78851265 -0.21201642 3.0590982 8.4809035e-39
-0.76794446 -0.21231569 3.0595016 7.9284472e-39
-0.74908119 -0.21304105 3.058537 7.5596689e-39
-0.73032862 -0.21316831 3.0593362 7.5589486e-39
-0.71290147 -0.21336207 3.0598552 7.6507841e-39
-0.34087223 -0.22125974 3.0598009 1.1431532e-38
-0.32939419 -0.22132075 3.0603402 1.0694683e-38
-0.31939206 -0.22166811 3.0599389 1.0694686e-38
-0.24410924 -0.22364947 3.0587935 1.1430813e-38
-0.23187858 -0.2236461 3.0595703 1.1338618e-38
-0.20920391 -0.22431304 3.0590177 1.1615918e-38
-0.18909174 -0.22455783 3.0595541 1.1431532e-38
-0.17166461 -0.22475159 3.0600731 1.1524082e-38
-0.15013334 -0.225436 3.059397 1.1708115e-38
-0.13133819 -0.22579332 3.0595176 1.1707758e-38
-0.10631196 -0.22608565 3.0602212 1.1616281e-38
-0.097395912 -0.22607177 3.0608215 1.1615921e-38
-0.072471783 -0.22581202 3.0631533 1.1431169e-38
-0.040149387 -0.22697665 3.0617321 1.1431164e-38
-0.029375255 -0.22736484 3.0612583 1.1431164e-38
-0.01051202 -0.22809029 3.0602934 1.1430799e-38
0.0055981339 -0.22839652 3.0603969 1.1337889e-38
0.045873515 -0.22916216 3.0606556 1.1337872e-38
0.071777724 -0.2293795 3.0616364 1.1153484e-38
0.091467902 -0.22975385 3.0617628 1.1153487e-38
0.11026309 -0.23011109 3.0618834 1.1245322e-38
0.12905827 -0.23046842 3.0620041 1.1245682e-38
0.15234551 -0.23100284 3.0618823 1.1337526e-38
0.17159866 -0.23108059 3.0628593 1.0877627e-38
0.19077982 -0.2314584 3.0629435 9.9574769e-39
0.21045299 -0.23174068 3.0633411 8.8504147e-39
0.23166838 -0.23159389 3.0651062 7.5589626e-39
0.2470973 -0.23216225 3.0643909 7.743714e-39
0.38925055 -0.23403935 3.0677471 1.4473605e-38
0.41620287 -0.23510189 3.0662913 1.6039872e-38
0.42973009 -0.23590919 3.0647492 1.5856548e-38
0.4524048 -0.23657607 3.0641971 1.5948391e-38
0.47005653 -0.23695096 3.064194 1.6224256e-38
0.4888517 -0.23730822 3.0643146 1.6316093e-38
0.50496185 -0.23761451 3.0644181 1.640865e-38
0.55420429 -0.23864236 3.0644627 1.6501573e-38
0.5697934 -0.23888624 3.0647182 1.696254e-38
0.59176069 -0.23917288 3.0652468 1.668596e-38
0.6095928 -0.23914509 3.0664473 1.6779591e-38
0.62839651 -0.23954847 3.066432 1.687071e-38
0.64990228 -0.24009486 3.0661628 1.6778151e-38
0.66549569 -0.2405013 3.0659375 1.6869634e-38
0.7092824 -0.24128477 3.0663636 1.6593769e-38
0.73040187 -0.24135002 3.0674944 1.6685966e-38
0.74998617 -0.2418402 3.0672715 1.6685606e-38
0.76267332 -0.24223861 3.0668874 1.677744e-38
0.81647587 -0.24381167 3.065604 1.6685961e-38
0.83093417 -0.24386643 3.0663483 1.6409739e-38
0.85045213 -0.24427409 3.066365 1.6225349e-38
0.87008703 -0.24434938 3.0673735 1.6316106e-38
0.89165658 -0.24524085 3.0660868 1.6131711e-38
0.91040069 -0.24532208 3.0670216 1.6224269e-38
0.93096894 -0.24562138 3.067425 1.5856202e-38
0.95067608 -0.24608772 3.0672801 1.5579618e-38
0.96947128 -0.246445 3.0674009 1.5395587e-38
0.98895693 -0.24659047 3.068192 1.5211197e-38
-0.88740599 -0.20775223 3.0655212 5.6051939e-45
-0.86486059 -0.20909782 3.0629513 4.5179138e-39
-0.84873003 -0.20951451 3.0627291 4.7008897e-39
-0.8299042 -0.21003744 3.0623615 4.4250231e-39
-0.81110907 -0.21039474 3.0624821 4.7920007e-39
-0.7896288 -0.21080306 3.0626202 5.8979812e-39
-0.77215064 -0.2112729 3.0623252 7.8355271e-39
-0.88726568 -0.2065811 3.0689969 2.8025969e-45
-0.876836 -0.2070362 3.0683038 1.8367099e-40
0.51797575 -0.22987138 3.0881574 1.6501204e-38
0.53157508 -0.23040746 3.0874231 1.6409013e-38
0.54783243 -0.23071659 3.0875273 1.650157e-38
0.68936443 -0.23390682 3.0869567 1.6409016e-38
0.70232898 -0.23393118 3.0876977 1.7239137e-38
0.77824825 -0.23565206 3.087363 1.6593407e-38
0.79335999 -0.23560601 3.0884469 1.6501933e-38
0.80887079 -0.23577145 3.0889297 1.66856e-38
-0.34567752 -0.21234249 3.0858991 1.0325176e-38
-0.33042634 -0.21207726 3.0876405 1.0418095e-38
-0.24901068 -0.21431896 3.0861089 1.097091e-38
-0.2300867 -0.21444741 3.0869153 1.1062748e-38
-0.20999815 -0.21503273 3.0864418 1.1246777e-38
-0.19053049 -0.21518074 3.0872242 1.1247135e-38
-0.17051066 -0.21539488 3.0878458 1.1339327e-38
-0.15149221 -0.21603404 3.087146 1.1523362e-38
-0.13068455 -0.21661463 3.0867317 1.1615559e-38
-0.10851157 -0.21693042 3.0871873 1.1615559e-38
-0.089223787 -0.21694021 3.0883677 1.1615198e-38
-0.069877125 -0.21726824 3.0886092 1.1522645e-38
-0.048528835 -0.21799146 3.0878069 1.1431168e-38
-0.024039755 -0.2190122 3.0863204 1.1614835e-38
-0.010491943 -0.21926975 3.0864074 1.1430799e-38
0.011133048 -0.21940316 3.0873685 1.1337169e-38
0.030099984 -0.21976377 3.0874903 1.1153132e-38
0.049461365 -0.22017156 3.0874972 1.1061292e-38
0.069086783 -0.22033842 3.0882335 1.0969091e-38
0.089607343 -0.2203398 3.0895159 1.0784344e-38
0.10742038 -0.22071812 3.0895131 1.0784698e-38
0.13030228 -0.22139111 3.0889554 1.0876898e-38
0.15160643 -0.22187535 3.0888574 1.0877261e-38
0.17089422 -0.22188516 3.0900381 1.0233337e-38
0.19165036 -0.22218715 3.0904453 8.8507777e-39
0.20882809 -0.22260627 3.0902817 7.4674929e-39
0.39844593 -0.22593342 3.0923209 1.4565802e-38
0.40386504 -0.22603644 3.0923557 1.5673239e-38
0.43106371 -0.22710863 3.0908868 1.5764001e-38
0.45180264 -0.22731785 3.091568 1.6224256e-38
0.47165561 -0.22760274 3.0919693 1.6316454e-38
0.48954907 -0.22799848 3.0919197 1.6777068e-38
0.50966674 -0.22874179 3.0909805 1.6500843e-38
0.5341301 -0.22962315 3.089905 1.6593403e-38
0.55143011 -0.22973002 3.0906734 1.6593407e-38
0.56951815 -0.22955564 3.0923238 1.6778154e-38
0.59087634 -0.22986916 3.0927348 1.6686319e-38
0.60979182 -0.22995113 3.0936782 1.6779233e-38
0.6341778 -0.23041476 3.0938346 1.7146575e-38
0.65043527 -0.23072381 3.0939391 1.7054022e-38
0.67078269 -0.2312495 3.0936587 1.6961829e-38
0.68847221 -0.23200211 3.0925398 1.6869994e-38
0.70807785 -0.23216657 3.093282 1.6870349e-38
0.72901255 -0.23221755 3.0944438 1.6686323e-38
0.74797952 -0.2325782 3.0945654 1.6593769e-38
0.77241707 -0.23332033 3.0939007 1.6777798e-38
0.78982008 -0.23398417 3.0930264 1.6685606e-38
0.81224316 -0.23454009 3.0927866 1.659305e-38
0.82862115 -0.23461588 3.0935891 1.659413e-38
0.85102534 -0.23498115 3.0939126 1.6409738e-38
0.86996126 -0.23517472 3.0945268 1.6224627e-38
0.89059526 -0.23578891 3.0940022 1.6132074e-38
0.90990794 -0.2361612 3.0941112 1.6132072e-38
0.92957175 -0.2363079 3.0949099 1.5856208e-38
0.94853854 -0.23666844 3.0950315 1.5579978e-38
0.97021508 -0.23708056 3.0951707 1.5579618e-38
0.98808783 -0.23736477 3.0954497 1.5211554e-38
1.0026784 -0.2374201 3.0962009 1.511936e-38
-0.86866081 -0.19976319 3.090348 3.4105096e-39
-0.84923381 -0.20017874 3.0903361 4.9781871e-39
-0.82934642 -0.20064926 3.0901899 4.7941489e-39
-0.81037945 -0.2010098 3.0903115 4.6101304e-39
-0.79139531 -0.20146321 3.0901597 4.5161425e-39
-0.76958144 -0.20261827 3.0881081 7.3741958e-39
-0.74376339 -0.20352551 3.0870409 8.848956e-39
-0.72996014 -0.20370463 3.0873761 8.2039481e-39
-0.32511023 -0.21162307 3.0893183 1.0233346e-38
-0.086668752 -0.21615598 3.0908494 1.1615185e-38
-0.075830497 -0.216362 3.090919 1.1615185e-38
0.19310206 -0.22099854 3.0940549 7.4664097e-39
0.20580947 -0.22088316 3.0951934 7.3742113e-39
0.34936476 -0.22333476 3.0969367 1.327436e-38
0.37385383 -0.22435549 3.0954504 1.3920073e-38
0.3847436 -0.22484009 3.0946984 1.5579593e-38
0.59249383 -0.22888203 3.0957587 1.6778512e-38
0.60963732 -0.22911538 3.0961428 1.6962546e-38
0.62860423 -0.2294759 3.0962646 1.6777791e-38
0.65028071 -0.22988801 3.0964038 1.6961829e-38
0.66817415 -0.2302838 3.096354 1.6962187e-38
0.68916929 -0.23090492 3.0958316 1.6869994e-38
0.71536171 -0.23140287 3.0959997 1.714657e-38
0.73432869 -0.23176347 3.0961213 1.6869277e-38
0.74782497 -0.2317424 3.0970302 1.6777801e-38
0.76834756 -0.23217215 3.0970445 1.6869635e-38
0.78956252 -0.23259144 3.0971336 1.6869637e-38
0.8752259 -0.23444198 3.0970261 1.6408301e-38
0.88064498 -0.23454502 3.0970609 1.650157e-38
1.0025753 -0.23686293 3.0978439 1.5487417e-38
-0.88586307 -0.197473 3.0960495 2.7586662e-40
-0.85388702 -0.19934991 3.0924978 0
-0.32783714 -0.20328562 3.1138303 1.0232986e-38
-0.25240961 -0.20495948 3.1136041 1.087835e-38
-0.22755219 -0.20537874 3.1139216 1.0879069e-38
-0.21161193 -0.20563506 3.114162 1.0879422e-38
-0.19113219 -0.20588441 3.1147082 1.10631e-38
-0.16925938 -0.20630018 3.1148486 1.1246415e-38
-0.15012071 -0.20666401 3.1149716 1.1246774e-38
-0.1297657 -0.20729099 3.1143916 1.1247133e-38
-0.11023642 -0.20766227 3.114517 1.1522998e-38
-0.095438711 -0.20770352 3.1153226 1.1707381e-38
-0.065363623 -0.20827527 3.1155157 1.1522638e-38
-0.048907053 -0.20886821 3.1147923 1.1338967e-38
-0.02971638 -0.20951313 3.1140862 1.1338962e-38
-0.010319681 -0.20993282 3.1140599 1.1337889e-38
0.011243131 -0.21001166 3.1151786 1.1153135e-38
0.030381823 -0.21037555 3.1153014 1.0877261e-38
0.049234055 -0.21082731 3.1151462 1.0784707e-38
0.071393311 -0.21115518 3.1155648 1.0508117e-38
0.09048003 -0.21123791 3.1165166 1.0323727e-38
0.11127999 -0.21174543 3.1163182 1.0599228e-38
0.1315435 -0.21229863 3.1159511 1.0415922e-38
0.15068218 -0.21266246 3.1160738 1.0140066e-38
0.1697689 -0.21274528 3.1170256 9.2188315e-39
0.39669913 -0.21705928 3.1184828 1.6132415e-38
0.41042161 -0.21760029 3.1177416 1.5856911e-38
0.43066436 -0.21804112 3.1177058 1.5856554e-38
0.44751984 -0.21826544 3.1180985 1.6223902e-38
0.47051981 -0.21846268 3.1189568 1.65012e-38
0.48965853 -0.21882646 3.1190801 1.6684874e-38
0.5088492 -0.21947137 3.1183739 1.6684877e-38
0.52973235 -0.22042854 3.1168497 1.677743e-38
0.54886061 -0.22073628 3.1171379 1.6684884e-38
0.56732768 -0.22041506 3.1192467 1.6870351e-38
0.58261788 -0.22059371 3.1196766 1.6962544e-38
0.69198179 -0.22267275 3.120379 1.6961831e-38
0.71112055 -0.22303657 3.1205018 1.7146215e-38
0.7329933 -0.22345239 3.1206424 1.6777435e-38
0.81168962 -0.22543858 3.1196966 1.6593053e-38
0.8314209 -0.22532354 3.1212745 1.659377e-38
0.85055959 -0.22568731 3.1213975 1.6502292e-38
0.8702659 -0.22617406 3.121192 1.6409019e-38
0.89703923 -0.22657093 3.1216958 1.6501572e-38
0.9107098 -0.22683083 3.1217837 1.6225704e-38
0.92984849 -0.2271947 3.1219065 1.5856922e-38
0.94898719 -0.22755846 3.1220295 1.5764015e-38
0.96812582 -0.22792234 3.1221521 1.5671811e-38
-0.80114818 -0.19260696 3.1157668 4.9774752e-39
-0.79021174 -0.19281484 3.1158369 4.5164929e-39
-0.77096909 -0.19374095 3.1143019 5.897984e-39
-0.75123441 -0.1940538 3.1146131 6.9121359e-39
-0.325207 -0.2027752 3.1155059 1.0141145e-38
-0.25138634 -0.20417869 3.1159797 1.0876912e-38
-0.22954817 -0.20440705 3.116673 1.0602123e-38
-0.20932277 -0.20475425 3.1169133 1.0786513e-38
-0.19123614 -0.20532221 3.1163659 1.0879068e-38
-0.16774368 -0.20565671 3.1168485 1.106238e-38
-0.15161769 -0.20593522 3.1170352 1.10631e-38
-0.13108596 -0.2064656 3.1167521 1.1338249e-38
-0.10722756 -0.20656905 3.1179423 1.1337529e-38
-0.090929888 -0.20682877 3.1181951 1.1430079e-38
-0.071039721 -0.20704682 3.1187966 1.1246768e-38
-0.049903143 -0.20749956 3.1187816 1.1246764e-38
0.013821303 -0.20922029 3.1176829 1.0969818e-38
0.027491795 -0.20948027 3.1177707 1.0877614e-38
0.073025465 -0.21015912 3.1186161 1.0138977e-38
0.090968639 -0.21019669 3.1196296 9.7701948e-39
0.10778076 -0.21050224 3.1197793 1.0044977e-38
0.13138756 -0.21145536 3.1184378 9.9545819e-39
0.15052627 -0.21181908 3.1185608 9.6783677e-39
0.17031613 -0.21168603 3.1201956 8.1117707e-39
0.18869971 -0.21198459 3.1204646 7.3738455e-39
0.3692542 -0.21597731 3.1199651 1.3089962e-38
0.39112699 -0.21639313 3.1201057 1.5764344e-38
0.44854307 -0.21748464 3.1204743 1.6407571e-38
0.47041586 -0.21790047 3.1206148 1.6501559e-38
0.57704574 -0.2199275 3.1212995 1.6503371e-38
0.59199238 -0.21972138 3.1228468 1.705509e-38
0.60969895 -0.21970786 3.1239972 1.705438e-38
0.6288377 -0.22007167 3.1241202 1.6778147e-38
0.65076244 -0.22076868 3.1234314 1.7146219e-38
0.6687659 -0.22088678 3.1242104 1.6962185e-38
0.68979502 -0.22156155 3.1235316 1.6961828e-38
0.70935535 -0.22233076 3.1224809 1.6962185e-38
0.73015529 -0.22283807 3.122283 1.6869632e-38
0.74921596 -0.22278036 3.1236491 1.6869635e-38
0.77106279 -0.2230556 3.1242039 1.6869987e-38
0.78914952 -0.22362357 3.1236567 1.6685961e-38
0.80941814 -0.22420493 3.1232064 1.6685604e-38
0.83131695 -0.22476132 3.1229322 1.6685603e-38
0.85045564 -0.22512504 3.1230555 1.6685604e-38
0.86412615 -0.22538503 3.123143 1.6499774e-38
0.91607404 -0.2263726 3.1234765 1.6226062e-38
0.93136424 -0.22655122 3.1239064 1.5948757e-38
0.94749022 -0.22682974 3.1240928 1.5856208e-38
0.97006762 -0.22696318 3.1251135 1.5763289e-38
0.98164046 -0.2273389 3.1247268 1.5670733e-38
-0.88343102 -0.18964219 3.1193848 9.2197031e-41
-0.87040353 -0.18982513 3.1196597 0
-0.85055256 -0.19064066 3.1184905 6.4500507e-40
-0.83254361 -0.19120978 3.1179347 3.9625666e-39
-0.80945438 -0.19188879 3.1173718 5.2551411e-39
0.1775554 -0.21065228 3.1237099 7.0986978e-39
0.18970293 -0.2100428 3.126276 7.283089e-39
-0.88384682 -0.18739331 3.1260164 1.8439126e-40
0.41716638 -0.2088667 3.1440198 1.5764355e-38
0.42544493 -0.20902404 3.144073 1.567181e-38
0.53582543 -0.21112245 3.1447818 1.6777787e-38
0.54962295 -0.21138476 3.1448705 1.6870349e-38
0.56066102 -0.21159455 3.1449413 1.6961825e-38
-0.80295771 -0.18340984 3.1428809 5.5309993e-39
-0.78748345 -0.18381704 3.1426456 4.517932e-39
-0.33206892 -0.19341168 3.142796 9.9567553e-39
-0.24751301 -0.19521299 3.1427648 1.0601044e-38
-0.22746827 -0.19505696 3.144484 1.0325897e-38
-0.21117137 -0.19545156 3.1443374 1.0602122e-38
-0.18878263 -0.1960751 3.1438954 1.0877989e-38
-0.17206217 -0.19621111 3.144541 1.0969465e-38
-0.14762077 -0.19667579 3.1446979 1.106166e-38
-0.12947933 -0.19706115 3.1446946 1.1061657e-38
-0.11115254 -0.19703253 3.1459284 1.1152779e-38
-0.088209055 -0.19718595 3.1469126 1.1153491e-38
-0.068927452 -0.19736405 3.1475945 1.1060942e-38
-0.047934171 -0.19787617 3.1473944 1.1153847e-38
-0.030031977 -0.19951715 3.1436594 1.1154924e-38
-0.0096430629 -0.19973511 3.1442924 1.1062021e-38
0.011229559 -0.19959468 3.1460166 1.078543e-38
0.031092804 -0.19994397 3.1462281 1.0600316e-38
0.049888968 -0.20047081 3.1458468 1.0415923e-38
0.068450101 -0.2004704 3.147012 9.9542315e-39
0.086560056 -0.20050843 3.148035 9.4014179e-39
0.11325283 -0.20111011 3.1479273 9.0326256e-39
0.12986235 -0.20170853 3.147197 8.9407943e-39
0.14917894 -0.20207573 3.147321 8.480542e-39
0.16703708 -0.20199119 3.1486912 7.2827289e-39
0.3738662 -0.20668641 3.1477594 1.5487397e-38
0.38930896 -0.20692347 3.148026 1.5856185e-38
0.40929872 -0.20749915 3.1475751 1.6039506e-38
0.43070161 -0.20771027 3.1482923 1.6224259e-38
0.4499658 -0.20779388 3.1492524 1.6592318e-38
0.46819955 -0.20825359 3.1490347 1.650084e-38
0.49116844 -0.20920542 3.1476572 1.6776711e-38
0.51083249 -0.20979917 3.1471324 1.6777071e-38
0.5273633 -0.2099721 3.1476572 1.6869271e-38
0.54951811 -0.21081732 3.1465437 1.677816e-38
0.57063937 -0.2110303 3.1472375 1.6870353e-38
0.58951831 -0.21044672 3.1501489 1.6962541e-38
0.60991257 -0.21026909 3.1519537 1.7054734e-38
0.62922919 -0.21063636 3.1520777 1.7238774e-38
0.65253294 -0.21132156 3.15151 1.7055104e-38
0.66515523 -0.21160199 3.1514714 1.7330609e-38
0.6845243 -0.21225291 3.1507587 1.687035e-38
0.71217191 -0.21306124 3.1500993 1.7054382e-38
0.7275539 -0.21339393 3.1500788 1.6869635e-38
0.75168997 -0.21362408 3.1509111 1.7053668e-38
0.76866329 -0.21371101 3.1517174 1.6869995e-38
0.78815818 -0.21398056 3.1521418 1.6594127e-38
0.8110677 -0.21465847 3.1515715 1.6685245e-38
0.83083087 -0.21531701 3.1508613 1.6685604e-38
0.84832531 -0.21574381 3.1506946 1.6593769e-38
0.86951661 -0.21633516 3.1502726 1.6593413e-38
0.88883317 -0.21670239 3.1503966 1.6409377e-38
0.91136342 -0.21745369 3.149585 1.6133868e-38
0.93157935 -0.21737364 3.1510897 1.5856924e-38
0.94947249 -0.21747823 3.1519022 1.5764727e-38
0.96875417 -0.21765614 3.1525841 1.5947678e-38
-0.88053882 -0.18023866 3.1474047 0
-0.86398178 -0.18055347 3.147511 1.8439126e-40
-0.85013169 -0.18109943 3.1467631 6.4357435e-40
-0.83008587 -0.1816926 3.1462641 8.301152e-40
-0.81144613 -0.18211764 3.1461744 2.1194135e-39
-0.79101515 -0.1825626 3.1461382 3.5956057e-39
-0.76718903 -0.1835244 3.1447847 4.7019771e-39
-0.04971578 -0.19716392 3.1493919 1.1061292e-38
0.071702763 -0.19947207 3.1501715 9.402141e-39
0.091019347 -0.19983926 3.1502955 9.0326326e-39
0.10757641 -0.20015408 3.1504018 8.6638459e-39
0.15537301 -0.20087408 3.1512668 7.1901717e-39
0.17094029 -0.20079316 3.1524827 6.914668e-39
0.18463293 -0.20048802 3.1542447 7.3749245e-39
0.33369905 -0.20360444 3.1543648 1.5301214e-38
0.34489447 -0.20466559 3.1519258 1.5023909e-38
0.460794 -0.20686889 3.1526701 1.6685592e-38
-0.88356054 -0.17876758 3.1515703 9.219563e-41
-0.86976308 -0.1790299 3.151659 2.7586942e-40
-0.85044652 -0.17939699 3.1517835 7.3612871e-40
-0.83237851 -0.18044728 3.1498065 9.219563e-41
-0.81316692 -0.18024716 3.1516039 9.1836897e-41
-0.79348511 -0.18110192 3.1503074 1.8367379e-40
-0.22808211 -0.18573591 3.1720397 1.0416653e-38
-0.2071687 -0.1862762 3.1717517 1.0601044e-38
-0.19091448 -0.18663283 3.1717155 1.0602119e-38
-0.16959868 -0.1868477 3.1724153 1.0784715e-38
-0.15010419 -0.18721841 3.1725407 1.0876911e-38
-0.13060972 -0.187589 3.1726658 1.0876911e-38
-0.11668509 -0.18785368 3.1727552 1.0876911e-38
-0.030299462 -0.18978123 3.1724651 1.1246037e-38
-0.01267925 -0.19002111 3.1728599 1.1153492e-38
0.0030667 -0.1901302 3.1735241 1.0969465e-38
0.35771582 -0.19706245 3.1752384 1.4656207e-38
0.36964759 -0.19755559 3.1745267 1.5025347e-38
0.39017132 -0.19748926 3.1760099 1.5763635e-38
0.40966582 -0.19785985 3.1761351 1.6315373e-38
0.476504 -0.1991304 3.1765642 1.6685592e-38
0.49212077 -0.19954145 3.1763268 1.6776711e-38
0.50997609 -0.20005207 3.1759346 1.7053296e-38
0.52948821 -0.20051813 3.1757782 1.686963e-38
0.5518558 -0.20141895 3.1745138 1.6869634e-38
0.57131499 -0.20159857 3.1752021 1.6962185e-38
0.58653504 -0.20136477 3.1768484 1.7054382e-38
0.67701864 -0.20294227 3.1778519 1.7146577e-38
0.69094324 -0.20320706 3.1779413 1.6962188e-38
0.71043777 -0.20357765 3.1780665 1.6962548e-38
0.72828245 -0.20403093 3.1778431 1.6961832e-38
0.74835515 -0.20452671 3.1776342 1.6869635e-38
0.7689212 -0.20468944 3.178442 1.6869278e-38
0.7828458 -0.20495412 3.1785314 1.6869277e-38
0.80512524 -0.20537767 3.1786745 1.7422453e-38
0.82853979 -0.20593688 3.1784871 1.6777441e-38
0.84968406 -0.20622472 3.1789606 1.6685607e-38
0.8692314 -0.20688172 3.1782413 1.6685966e-38
0.88980812 -0.20710161 3.1788805 1.6410098e-38
0.9121511 -0.20786878 3.1780102 1.6224989e-38
0.93170094 -0.20811 3.1785219 1.6041314e-38
0.94994134 -0.20813066 3.1796045 1.5764728e-38
0.9666509 -0.20844835 3.1797118 1.5855843e-38
-0.78533196 -0.1737157 3.1726849 3.8718437e-39
-0.40647614 -0.18148863 3.1734285 8.7581939e-39
-0.38976657 -0.1818063 3.1735356 9.0337102e-39
-0.3713755 -0.18221298 3.1734848 9.4021354e-39
-0.3507247 -0.18283387 3.1729417 9.6787265e-39
-0.33128318 -0.18291807 3.1739113 9.7709207e-39
-0.23097292 -0.18511039 3.1737108 1.0415934e-38
-0.1084362 -0.18743977 3.1744976 1.0876911e-38
-0.088941716 -0.18781036 3.1746228 1.0968742e-38
-0.069447249 -0.18818095 3.1747479 1.0877261e-38
-0.048345346 -0.18823977 3.1758971 1.0876901e-38
0.011315593 -0.18971629 3.1752665 1.078507e-38
0.030810071 -0.19008689 3.1753917 1.0324446e-38
0.050304547 -0.19045748 3.1755168 1.0046787e-38
0.068327151 -0.19037212 3.1768997 9.309588e-39
0.090151213 -0.19083466 3.176899 8.8482399e-39
0.11315916 -0.19119592 3.1772721 8.2035908e-39
0.13243337 -0.19187622 3.1764667 8.1106819e-39
0.14944826 -0.19134361 3.1791101 7.0057819e-39
0.33131731 -0.19437306 3.181545 1.5670719e-38
0.35193419 -0.19581127 3.17858 1.5761832e-38
0.37057096 -0.19654599 3.1775734 1.5763988e-38
0.39188674 -0.19676088 3.1782734 1.5948024e-38
0.41016346 -0.19679947 3.1793058 1.6223896e-38
0.42819867 -0.19712271 3.1794794 1.6408287e-38
0.45128086 -0.19779494 3.1789362 1.6500843e-38
0.47187874 -0.19812942 3.1792376 1.6685241e-38
0.49026978 -0.19853625 3.1791866 1.6777428e-38
0.50981724 -0.19919311 3.1784678 1.6961464e-38
0.52652675 -0.19951075 3.178575 1.6961462e-38
0.57665545 -0.20046365 3.1788969 1.7146577e-38
0.59058005 -0.20072845 3.1789863 1.7054022e-38
0.61079466 -0.20070514 3.1803229 1.7146212e-38
0.62837034 -0.20099042 3.1805801 1.7238768e-38
0.6490106 -0.20155385 3.1802061 1.7146578e-38
0.66970623 -0.20198812 3.1802185 1.7054745e-38
0.69078445 -0.20234811 3.1804743 1.7146219e-38
0.70917553 -0.20275468 3.1804235 1.7054382e-38
0.76881528 -0.20411676 3.1801307 1.6869994e-38
0.79291606 -0.20438464 3.1808486 1.6869279e-38
0.81119275 -0.20442319 3.181881 1.6869995e-38
0.83008367 -0.2052815 3.1805241 1.6869277e-38
0.84957808 -0.20565204 3.1806493 1.6777085e-38
0.87072241 -0.20593989 3.181123 1.6502297e-38
0.88946003 -0.20621997 3.1814685 1.6501935e-38
0.90806156 -0.20676383 3.181025 1.6225705e-38
0.96376008 -0.20782271 3.1813827 1.5948046e-38
-0.84423882 -0.17031331 3.1790645 9.219563e-41
-0.83465284 -0.17069936 3.1785226 9.1835496e-41
-0.80856007 -0.17116278 3.1787868 2.7550649e-40
-0.79498565 -0.17153488 3.1785359 3.6734619e-40
-0.82768816 -0.16977187 3.1817048 2.7658689e-40
-0.80819368 -0.17014246 3.1818299 5.5101438e-40
0.36877996 -0.18818347 3.2022181 1.5762556e-38
0.5515089 -0.19165716 3.2033913 1.7053658e-38
0.57118738 -0.19203126 3.2035177 1.6961825e-38
0.92821169 -0.19881849 3.2058103 1.6316824e-38
-0.41118425 -0.17162785 3.2023256 8.4801819e-39
-0.39062214 -0.17173067 3.2033103 8.5727348e-39
-0.3697871 -0.1722995 3.2029324 9.03335e-39
-0.34917688 -0.17275417 3.2028787 9.3099411e-39
-0.32790348 -0.17329337 3.2026169 9.6787237e-39
-0.24990109 -0.17526983 3.2016559 1.0139705e-38
-0.23141117 -0.17527574 3.2027979 1.0139707e-38
-0.21054406 -0.17601812 3.2019086 1.0324097e-38
-0.19009289 -0.17624237 3.2025275 1.0415933e-38
-0.16837583 -0.17681983 3.2021794 1.0600676e-38
-0.12824242 -0.17763515 3.2022822 1.0600677e-38
-0.10939378 -0.17765301 3.2034109 1.0692514e-38
-0.089715265 -0.17802711 3.2035372 1.0692513e-38
-0.069374025 -0.17819776 3.2043073 1.0600676e-38
-0.051384397 -0.17827572 3.2052045 1.050848e-38
-0.030572867 -0.17972748 3.2022116 1.0877258e-38
-0.010894362 -0.18010157 3.202338 1.0877263e-38
0.012700913 -0.18001527 3.2040732 1.0508837e-38
0.031166978 -0.18032509 3.2043135 1.0231897e-38
0.050035059 -0.18044819 3.2051322 9.7709235e-39
0.070470542 -0.18078431 3.2054186 8.9411628e-39
0.088310525 -0.1813155 3.2049646 8.57166e-39
0.10982754 -0.1815325 3.2056713 7.8355327e-39
0.13091165 -0.18193333 3.2058067 7.4660327e-39
0.14356212 -0.18217386 3.2058878 7.0968985e-39
0.33461785 -0.18522979 3.2088201 1.5762909e-38
0.34875408 -0.18593061 3.2076318 1.5578881e-38
0.37193969 -0.18709147 3.2056491 1.5671077e-38
0.39096686 -0.18697308 3.2071924 1.6131699e-38
0.40868214 -0.18682978 3.2087271 1.6223899e-38
0.43019915 -0.18704687 3.2094338 1.659196e-38
0.45114356 -0.18777421 3.2085941 1.6592678e-38
0.46960959 -0.18808405 3.2088342 1.677707e-38
0.48928812 -0.18845814 3.2089605 1.6869268e-38
0.51018727 -0.18937391 3.2075601 1.6777433e-38
0.52875197 -0.18978439 3.2075086 1.7053658e-38
0.55306745 -0.1909955 3.2054479 1.6962183e-38
0.57103783 -0.19122194 3.2059042 1.705438e-38
0.59249073 -0.19109212 3.2076337 1.7238416e-38
0.61020595 -0.19094877 3.2091687 1.7238414e-38
0.63150346 -0.19098887 3.2103853 1.7238771e-38
0.64952737 -0.19150431 3.2099895 1.7239131e-38
0.66891128 -0.19196896 3.2098298 1.7238058e-38
0.68888432 -0.1922525 3.2102423 1.7146218e-38
0.70856285 -0.1926266 3.2103686 1.7238052e-38
0.73095548 -0.19369483 3.2086105 1.7054384e-38
0.75160754 -0.19438101 3.2078738 1.6870353e-38
0.7707575 -0.19430655 3.2092953 1.6962188e-38
0.79014146 -0.19446559 3.2100399 1.7054028e-38
0.80855417 -0.19448636 3.2111328 1.6961836e-38
0.83064437 -0.19535071 3.2099588 1.6869997e-38
0.85032284 -0.19572482 3.2100852 1.6869995e-38
0.86886895 -0.19603419 3.2103322 1.6593773e-38
0.8875612 -0.19612546 3.2112339 1.6778161e-38
0.91180027 -0.19683069 3.2106659 1.6409739e-38
0.93075567 -0.19742665 3.2100902 1.6225346e-38
0.95043415 -0.19780073 3.2102165 1.6040959e-38
0.9645437 -0.19835702 3.2094543 1.6224989e-38
-0.38797125 -0.17091702 3.2058854 8.5727306e-39
-0.37953761 -0.17107736 3.2059395 8.6649263e-39
-0.33174694 -0.17198589 3.2062464 9.2180986e-39
-0.04781425 -0.17738357 3.2080696 1.0416284e-38
0.13517888 -0.18012165 3.2114375 6.6373525e-39
0.14308114 -0.17957245 3.2135589 6.8213794e-39
0.70840251 -0.19175953 3.2129257 1.7146219e-38
0.7224586 -0.19202681 3.213016 1.7146577e-38
0.78992772 -0.19330944 3.2134492 1.7054028e-38
0.81803989 -0.19384375 3.2136297 1.7054747e-38
-0.20966697 -0.16596209 3.2317343 9.9553161e-39
-0.19547945 -0.16623184 3.2318254 1.0139346e-38
-0.16994193 -0.16671728 3.2319894 1.0231896e-38
-0.13189778 -0.16755688 3.2318895 1.0416999e-38
-0.11035433 -0.16784996 3.2323723 1.0600314e-38
-0.090491794 -0.16822766 3.2324996 1.0508127e-38
-0.076304279 -0.16849741 3.2325907 1.0416642e-38
-0.030850265 -0.16965212 3.232022 1.0600316e-38
-0.010987737 -0.17002973 3.2321496 1.050848e-38
0.0099774264 -0.17025392 3.2328005 1.0416286e-38
0.031520884 -0.1705471 3.2332833 1.0140058e-38
0.059895925 -0.17108661 3.2334652 9.1273519e-39
0.071245946 -0.17130229 3.2335384 8.6663752e-39
0.091108464 -0.17167999 3.2336657 8.0188492e-39
0.110971 -0.17205748 3.2337935 7.5585899e-39
0.12515852 -0.17232724 3.2338843 6.9128674e-39
0.35215887 -0.1766426 3.235342 1.5578521e-38
0.36863795 -0.1770722 3.2351036 1.5855108e-38
0.38904643 -0.17734383 3.235579 1.6039503e-38
0.44579649 -0.17842273 3.2359433 1.6684522e-38
0.51389664 -0.17971724 3.2363808 1.687035e-38
0.5309217 -0.18004087 3.23649 1.7238044e-38
0.55303359 -0.18111548 3.2346957 1.7053657e-38
0.57075453 -0.18137965 3.2350245 1.7238405e-38
0.59114146 -0.18153465 3.2358439 1.7146577e-38
0.60753423 -0.18149748 3.2369819 1.7146577e-38
0.74999851 -0.18432206 3.2375524 1.6962546e-38
0.76927197 -0.18457201 3.2380207 1.7146221e-38
0.83737206 -0.1858667 3.2384577 1.7053671e-38
0.8487221 -0.18608239 3.2385309 1.696291e-38
0.87709713 -0.18662189 3.2387128 1.677816e-38
0.91114718 -0.18726926 3.2389314 1.6317908e-38
-0.42258766 -0.16133299 3.2320883 8.2954333e-39
-0.40845412 -0.16131085 3.2330399 8.2961423e-39
-0.38864553 -0.16139664 3.2340279 8.4798231e-39
-0.36867508 -0.16235784 3.2324345 8.8493161e-39
-0.34881261 -0.16273531 3.2325623 9.0337074e-39
-0.32900396 -0.16282135 3.2335498 9.2180958e-39
-0.30908749 -0.1634905 3.2328174 9.5865252e-39
-0.28922498 -0.16386822 3.2329447 9.9545917e-39
-0.26936245 -0.16424569 3.2330725 9.8631149e-39
-0.2483301 -0.16439636 3.2339451 9.7709235e-39
-0.22969134 -0.16470921 3.2341878 9.8631191e-39
-0.20982881 -0.16508681 3.2343154 9.9549546e-39
-0.18929735 -0.16525908 3.2350926 1.0047147e-38
-0.1701577 -0.1655502 3.2354307 1.0047149e-38
-0.15163299 -0.16633856 3.2342587 1.0139698e-38
-0.13037869 -0.16659719 3.2348256 1.0231892e-38
-0.10972857 -0.16686514 3.235327 1.0231899e-38
-0.090439804 -0.16711859 3.2357862 1.0232249e-38
-0.070898987 -0.16714647 3.2369289 1.023189e-38
-0.051603951 -0.16751325 3.2370529 1.0231892e-38
-0.031012092 -0.16877684 3.2346029 1.0415567e-38
-0.019662078 -0.16899274 3.2346756 1.0599954e-38
0.014387973 -0.16963999 3.2348945 1.0231542e-38
0.031359054 -0.16967194 3.2358642 9.863475e-39
0.051221587 -0.17004953 3.2359917 9.4961275e-39
0.071084127 -0.17042714 3.2361193 8.7585638e-39
0.090946645 -0.17080472 3.2362468 7.835174e-39
0.11070129 -0.17059882 3.238095 6.452964e-39
0.12581666 -0.17078926 3.2384789 6.4533227e-39
0.2694397 -0.17274444 3.2416961 1.2537141e-38
0.29227459 -0.17390522 3.239691 1.4196291e-38
0.30945247 -0.17505547 3.2373631 1.4288855e-38
0.32651347 -0.17557357 3.2368989 1.5302653e-38
0.34921348 -0.17600526 3.2370443 1.5579247e-38
0.37758848 -0.17654467 3.2372265 1.6131696e-38
0.38893852 -0.17676045 3.2372994 1.6131697e-38
0.40967497 -0.17676687 3.2385805 1.6224971e-38
0.42930555 -0.17716426 3.2386346 1.6592315e-38
0.45136362 -0.17794698 3.2377005 1.6684874e-38
0.47122613 -0.17832468 3.2378278 1.668595e-38
0.49108866 -0.17870218 3.2379556 1.6869625e-38
0.51095122 -0.17907988 3.2380829 1.6777796e-38
0.53081381 -0.17945737 3.2382107 1.7054013e-38
0.54216373 -0.17967325 3.2382834 1.7330238e-38
0.6159389 -0.18107581 3.2387571 1.733169e-38
0.63129622 -0.18111841 3.2395937 1.7330609e-38
0.64993501 -0.18143128 3.2398362 1.7330968e-38
0.67153239 -0.18201634 3.2394583 1.7238415e-38
0.68826818 -0.18230541 3.2396519 1.7238774e-38
0.7098586 -0.18219665 3.2413278 1.7054384e-38
0.7293312 -0.18264997 3.2412066 1.7146578e-38
0.74357259 -0.18321151 3.2404375 1.7146217e-38
0.77055591 -0.18386978 3.2401803 1.7146581e-38
0.78891873 -0.18378262 3.2415893 1.7054027e-38
0.80995947 -0.18441536 3.2410359 1.7145866e-38
0.82775187 -0.18481167 3.2409782 1.7054388e-38
0.85000598 -0.18538016 3.2406905 1.6962914e-38
0.86842281 -0.18558478 3.2412393 1.6778163e-38
0.89112282 -0.18601638 3.241385 1.6869995e-38
0.91155005 -0.18604928 3.2425683 1.6777808e-38
0.92656463 -0.18654478 3.2420428 1.6871079e-38
0.1131612 -0.16861059 3.2441354 6.544445e-39
0.25225285 -0.17154555 3.2441676 1.1430076e-38
0.34896684 -0.16677693 3.2643487 1.5578882e-38
0.3699744 -0.16717632 3.2644837 1.5855105e-38
0.39289173 -0.16761196 3.2646308 1.6223895e-38
0.55623239 -0.17101064 3.2648108 1.714657e-38
0.57196093 -0.17116286 3.2653463 1.7238404e-38
0.58937287 -0.17159864 3.2651482 1.7146574e-38
0.61060667 -0.17175083 3.2660289 1.7054378e-38
0.75956947 -0.17458268 3.2669854 1.7054024e-38
0.76529884 -0.17469153 3.2670221 1.7054024e-38
-0.42948636 -0.15080406 3.2628262 8.4798189e-39
-0.4106231 -0.15092795 3.2636421 8.3883352e-39
-0.38980579 -0.15147464 3.263329 8.6638459e-39
-0.30911577 -0.15338589 3.2627301 9.4014137e-39
-0.24901217 -0.15423517 3.2639844 9.7709221e-39
-0.22726244 -0.15453103 3.2644718 1.004643e-38
-0.21036634 -0.15482304 3.264667 1.0046787e-38
-0.19066001 -0.15487476 3.2657497 9.8631121e-39
-0.16891031 -0.15517083 3.2662365 9.8631121e-39
-0.1487705 -0.15602311 3.2649763 9.8634694e-39
-0.13015558 -0.15634787 3.265182 1.0139339e-38
-0.11062572 -0.15647447 3.266032 1.0047506e-38
-0.090104662 -0.1568158 3.2663083 1.0139696e-38
-0.060052846 -0.15724027 3.2669356 1.0139696e-38
-0.048594169 -0.15745808 3.2670093 1.0231532e-38
-0.029351145 -0.15860651 3.2648163 1.0231534e-38
-0.0083254129 -0.15910405 3.2646616 1.0047506e-38
0.0088626081 -0.15943083 3.2647719 9.9553133e-39
0.027163822 -0.15960258 3.2654104 9.7716339e-39
0.050318632 -0.15977874 3.266341 9.4042864e-39
0.068911754 -0.15998539 3.2668953 8.2979486e-39
0.088964455 -0.16036659 3.267024 7.0972516e-39
0.10042312 -0.16058452 3.2670972 6.3589481e-39
0.29516622 -0.16399318 3.2692168 1.5210089e-38
0.31136084 -0.16512266 3.2668879 1.5210813e-38
0.32970566 -0.16553017 3.2668321 1.5302293e-38
0.3497583 -0.16591138 3.2669609 1.5670718e-38
0.36981103 -0.16629259 3.2670898 1.5855105e-38
0.39080045 -0.16659383 3.2675142 1.6131337e-38
0.4098075 -0.16646594 3.2690845 1.6316086e-38
0.43175185 -0.1667853 3.2695148 1.6500477e-38
0.44926479 -0.16758288 3.2682517 1.6684514e-38
0.47007447 -0.16819863 3.2677336 1.6777065e-38
0.49012715 -0.16857985 3.2678623 1.6961817e-38
0.50935411 -0.16870503 3.2686968 1.6961825e-38
0.53090787 -0.16913505 3.2687759 1.7053302e-38
0.54739332 -0.16952179 3.2686646 1.6962184e-38
0.56752765 -0.17034493 3.2674901 1.7238765e-38
0.61622703 -0.17127074 3.2678027 1.7054374e-38
0.63049597 -0.17124841 3.2687633 1.714694e-38
0.65049428 -0.17133515 3.2697606 1.7054382e-38
0.67155623 -0.17202891 3.2690275 1.7146938e-38
0.6906358 -0.17229381 3.269439 1.7147296e-38
0.70967931 -0.17236227 3.2704308 1.7238775e-38
0.73205566 -0.17244537 3.2715876 1.7330968e-38
0.74903888 -0.17320845 3.2703936 1.7146937e-38
0.77091926 -0.17421146 3.2687962 1.7423168e-38
0.79080856 -0.17370893 3.2715309 1.7238418e-38
0.81199622 -0.17405298 3.2718406 1.7237702e-38
0.83091396 -0.17447135 3.2717884 1.7238059e-38
0.85113001 -0.17573629 3.2693112 1.705475e-38
0.87107378 -0.17552845 3.2711771 1.6962194e-38
0.89253157 -0.17578954 3.2717493 1.7054385e-38
0.90826005 -0.17594174 3.2722852 1.7239142e-38
0.077287927 -0.15897079 3.2704244 6.4508046e-39
0.089173414 -0.15868954 3.272002 6.3582474e-39
0.10389779 -0.15879165 3.2726231 6.3596852e-39
0.2288976 -0.16067886 3.2748733 1.0875809e-38
0.24905923 -0.16164912 3.2732651 1.2535335e-38
0.27213994 -0.16296838 3.2708066 1.354913e-38
0.2835986 -0.16318621 3.2708802 1.5299765e-38
0.42969677 -0.16596363 3.2718184 1.6500477e-38
0.44402012 -0.16623588 3.2719102 1.6592673e-38
0.81069791 -0.17320661 3.2742648 1.7054027e-38
0.90236729 -0.17494926 3.2748535 1.7606847e-38
-0.12690713 -0.1467291 3.2938621 9.954949e-39
-0.02569288 -0.14865321 3.294512 1.0138976e-38
-0.0054500303 -0.14903803 3.294642 9.8631191e-39
0.0090091471 -0.14931299 3.2947347 9.8631149e-39
0.029251995 -0.14969781 3.2948647 9.6794355e-39
0.046603009 -0.15002763 3.2949762 9.4964778e-39
0.31123346 -0.1552064 3.296237 1.5117896e-38
0.3300029 -0.15541515 3.2967961 1.5301933e-38
0.35024577 -0.15579997 3.296926 1.5669996e-38
0.37048858 -0.15618479 3.297056 1.5762552e-38
0.39073145 -0.15656962 3.2971859 1.6038782e-38
0.46013549 -0.15788905 3.2976317 1.6868182e-38
0.47170284 -0.1581089 3.2977059 1.6776347e-38
0.48905388 -0.15843874 3.2978172 1.6961455e-38
0.5006212 -0.1586587 3.2978916 1.7145847e-38
0.52664769 -0.15915351 3.2980587 1.686963e-38
0.55851293 -0.16005544 3.2973862 1.7238765e-38
0.57008028 -0.16027541 3.2974603 1.7238765e-38
0.58959943 -0.16099678 3.2965488 1.723877e-38
0.61135763 -0.16143051 3.2966287 1.7238771e-38
0.62956154 -0.16136393 3.2979677 1.7146578e-38
0.65099669 -0.16151744 3.2988572 1.7054385e-38
0.67299658 -0.16205427 3.2986474 1.7146578e-38
0.69148237 -0.16228709 3.2991173 1.7146577e-38
0.70741493 -0.16273798 3.2987809 1.7238771e-38
0.75510275 -0.16349642 3.2995257 1.7147296e-38
0.77084845 -0.16404979 3.2988749 1.7238777e-38
0.78598571 -0.16428113 3.2991393 1.7146584e-38
0.856372 -0.1657179 3.299299 1.7054031e-38
0.87081289 -0.1658937 3.299684 1.7054389e-38
0.89101899 -0.16608031 3.3003986 1.696219e-38
-0.47131047 -0.1387005 3.2960355 7.6471702e-39
-0.4510676 -0.13908543 3.2961655 8.1095875e-39
-0.43076977 -0.1397675 3.2954187 9.6765488e-39
-0.41275167 -0.14024164 3.2951446 9.3081236e-39
-0.39137483 -0.14087193 3.2946196 8.8475084e-39
-0.36703941 -0.14157148 3.2940743 8.5716488e-39
-0.34827 -0.14178012 3.2946334 8.7564002e-39
-0.33817607 -0.1418239 3.2951367 8.8485944e-39
-0.30920273 -0.14267096 3.2944455 9.2170168e-39
-0.29763538 -0.14289081 3.2945199 9.2170196e-39
-0.2426905 -0.14393541 3.2948728 9.679081e-39
-0.22823133 -0.14421025 3.2949655 9.7709221e-39
-0.21088031 -0.14454007 3.2950771 9.8631191e-39
-0.18892434 -0.14483906 3.2955687 9.8631149e-39
-0.17039461 -0.14530972 3.295337 9.8634708e-39
-0.15015176 -0.14569454 3.2954669 9.9553091e-39
-0.13280074 -0.14602438 3.2955785 9.863468e-39
-0.10966606 -0.14646418 3.295727 1.0047499e-38
-0.089423209 -0.14684901 3.295857 1.0139335e-38
-0.067988127 -0.14700276 3.2967463 1.0047503e-38
-0.0489925 -0.14732152 3.2969935 9.9552993e-39
-0.037425149 -0.14754136 3.2970679 1.0139333e-38
0.032033887 -0.14915794 3.2966368 9.4032088e-39
0.05320403 -0.14936297 3.2973576 8.4823469e-39
0.06879124 -0.14894529 3.2995713 6.543359e-39
0.08375708 -0.14836356 3.3022318 6.2664106e-39
0.25159347 -0.15214686 3.3015554 1.2904125e-38
0.26905444 -0.15307133 3.2999132 1.4932777e-38
0.28935227 -0.15375352 3.2991664 1.5301561e-38
0.30965009 -0.15443559 3.2984195 1.5208654e-38
0.33178422 -0.15465903 3.2991462 1.5577438e-38
0.35008085 -0.15490811 3.299556 1.5762189e-38
0.37080315 -0.15476866 3.3012679 1.5946938e-38
0.39051154 -0.15538035 3.3006926 1.6039142e-38
0.4108094 -0.15606256 3.2999458 1.6315367e-38
0.43174499 -0.15574095 3.3022108 1.6499757e-38
0.45118511 -0.15623745 3.3019593 1.6683789e-38
0.47148293 -0.15691964 3.3012125 1.6684508e-38
0.48883396 -0.15724948 3.3013239 1.6685229e-38
0.50852048 -0.15774228 3.3010995 1.6961099e-38
0.53005636 -0.15810724 3.3013694 1.7145491e-38
0.54886979 -0.15825403 3.3021142 1.7054375e-38
0.56986034 -0.15908617 3.3009675 1.7146572e-38
0.58337396 -0.15944164 3.3007619 1.7330598e-38
0.63183606 -0.16030668 3.3012402 1.7422801e-38
0.6508317 -0.16062556 3.3014874 1.7330608e-38
0.66984308 -0.16102923 3.3014841 1.696254e-38
0.69131744 -0.16139521 3.3017473 1.7146575e-38
0.70866853 -0.16172504 3.3018589 1.7054384e-38
0.72891128 -0.16210985 3.3019886 1.7330968e-38
0.74915421 -0.16249469 3.3021188 1.723949e-38
0.77052069 -0.16272306 3.3027821 1.7146945e-38
0.78958493 -0.16296695 3.3032553 1.7146585e-38
0.81016123 -0.16342399 3.3031924 1.7238781e-38
0.83055633 -0.16353028 3.3041563 1.7239142e-38
0.84736657 -0.16376907 3.3045034 1.7238784e-38
0.87644988 -0.16521074 3.3020592 1.6778882e-38
0.89085412 -0.16518843 3.3030283 1.7332054e-38
0.90536827 -0.16576041 3.3022449 1.7514652e-38
-0.4715853 -0.13721377 3.30042 5.8976308e-39
-0.44782391 -0.13714705 3.3021071 5.991969e-39
0.072706535 -0.14704257 3.3054497 5.8997818e-39
0.084983088 -0.14720176 3.3057482 6.1763715e-39
0.59922028 -0.15009801 3.329417 1.7330608e-38
0.60977954 -0.15053833 3.3287761 1.7146577e-38
0.62258637 -0.15054223 3.329567 1.7514636e-38
0.87379897 -0.15546761 3.3307371 1.7054388e-38
-0.51099938 -0.12719688 3.3276031 5.8086526e-39
-0.44090125 -0.12852953 3.3280532 6.3582348e-39
-0.42921823 -0.12875164 3.3281283 6.4497116e-39
-0.40724313 -0.12954338 3.327162 9.3992291e-39
-0.38750035 -0.13006838 3.3268459 9.1240939e-39
-0.35143736 -0.13070904 3.3272104 9.0315354e-39
-0.20999514 -0.13381688 3.3268783 9.9553035e-39
-0.18958683 -0.13400534 3.3276 1.0047142e-38
-0.16916011 -0.1342939 3.3280265 1.0138979e-38
-0.1487148 -0.13468254 3.3281577 1.0047142e-38
-0.1311764 -0.13509077 3.3280489 9.863468e-39
-0.11189109 -0.13550238 3.3280399 1.0047499e-38
-0.091401398 -0.13613129 3.3274627 1.0047135e-38
-0.069882214 -0.13603164 3.329107 9.9549462e-39
-0.049464695 -0.1362702 3.3296809 9.954942e-39
-0.030874042 -0.13712226 3.3283238 1.0046423e-38
-0.008407563 -0.13794839 3.327287 1.0046426e-38
0.0091169626 -0.13828149 3.3273995 9.679074e-39
0.02956224 -0.13867016 3.3275306 9.1276967e-39
0.051384609 -0.13863617 3.3289998 7.0986894e-39
0.061468437 -0.13807975 3.3312793 4.609036e-39
0.23379292 -0.14135569 3.3323858 1.1798839e-38
0.24839671 -0.14163336 3.3324795 1.4656197e-38
0.26717836 -0.14246914 3.3311827 1.4933139e-38
0.291327 -0.14294815 3.3312788 1.5117533e-38
0.31085414 -0.14361861 3.3305182 1.5300851e-38
0.32954478 -0.14369965 3.3314502 1.5393409e-38
0.35067859 -0.143877 3.3322504 1.5671071e-38
0.36522686 -0.14385433 3.3332298 1.5946938e-38
0.39151365 -0.1443541 3.3333986 1.6038783e-38
0.40912145 -0.14513764 3.3321829 1.6223173e-38
0.42805082 -0.14519821 3.3331902 1.6499398e-38
0.45869097 -0.14563109 3.3338299 1.6591954e-38
0.47037399 -0.14585321 3.333905 1.6776345e-38
0.49081928 -0.14624186 3.3340364 1.6775628e-38
0.51129234 -0.14678073 3.3337247 1.7144766e-38
0.52766526 -0.14718172 3.333564 1.7145486e-38
0.54339284 -0.14724141 3.334374 1.7238039e-38
0.56973517 -0.14804138 3.333657 1.7054733e-38
0.59138209 -0.14863241 3.3332646 1.7422435e-38
0.61068118 -0.14911892 3.333034 1.7330606e-38
0.62993598 -0.14936534 3.3335121 1.7422442e-38
0.65151632 -0.14959604 3.3341823 1.7422802e-38
0.66788357 -0.149967 3.3341103 1.7330608e-38
0.69024408 -0.15048189 3.333988 1.7238411e-38
0.70993137 -0.15070657 3.3345573 1.7422089e-38
0.7303766 -0.15109524 3.3346887 1.7514639e-38
0.75082195 -0.15148389 3.33482 1.7330969e-38
0.76952583 -0.15189923 3.3347628 1.7239135e-38
0.78873616 -0.15190546 3.3359494 1.7423168e-38
0.81039429 -0.15255658 3.3353796 1.7331687e-38
0.82670599 -0.15262723 3.3361931 1.7516079e-38
0.87360466 -0.15441652 3.3338366 1.7238781e-38
0.88534319 -0.15493895 3.3330262 1.7239857e-38
-0.54346079 -0.12478425 3.33271 2.4003318e-39
-0.52582526 -0.12571813 3.3310516 1.4758461e-39
-0.51122147 -0.12599568 3.3311453 3.1328367e-39
-0.49158281 -0.1263146 3.3314326 5.1596832e-39
-0.46952808 -0.12661733 3.3319197 6.725944e-39
-0.44553223 -0.12709479 3.33201 6.3600215e-39
-0.43230557 -0.12779509 3.3307662 5.9912418e-39
-0.049631268 -0.13536923 3.3323376 1.0229735e-38
-0.037948251 -0.13559133 3.3324127 9.8620387e-39
0.055404831 -0.13676755 3.334784 5.344813e-39
0.062678955 -0.13675609 3.3352735 5.4388023e-39
0.21891153 -0.13957663 3.3367198 1.1798127e-38
0.22835788 -0.14029479 3.3351858 1.3456572e-38
0.37387806 -0.14342023 3.335057 1.5855104e-38
0.38556108 -0.14364234 3.3351321 1.603842e-38
0.43229315 -0.14453077 3.3354323 1.640756e-38
0.44981763 -0.14486387 3.3355448 1.659231e-38
0.49654973 -0.14575231 3.335845 1.6868537e-38
0.50531197 -0.14591888 3.335901 1.7052932e-38
0.52283651 -0.14625198 3.3360136 1.7145128e-38
0.54912329 -0.14675175 3.3361824 1.7145848e-38
0.56372708 -0.14702941 3.3362763 1.7329519e-38
0.61337984 -0.14797328 3.3365951 1.7605747e-38
0.63090444 -0.1483064 3.3367076 1.751428e-38
0.71560627 -0.14991671 3.3372517 1.7514999e-38
0.72728926 -0.15013871 3.3373265 1.7330608e-38
0.78862518 -0.1513048 3.3377204 1.7239497e-38
