# .PCD v0.7 - Point Cloud Data file format
VERSION 0.7
FIELDS x y z rgb
SIZE 4 4 4 4
TYPE F F F F
COUNT 1 1 1 1
WIDTH 1210
HEIGHT 1
VIEWPOINT 0 0 0 1 0 0 0
POINTS 1210
DATA ascii
1 -0.56798911 -0.31446156 2.3436058e-38
1 -0.54948604 -0.31107971 2.3436058e-38
1 -0.53191817 -0.3104766 2.3436058e-38
1 -0.51256245 -0.31256008 2.3436058e-38
1 -0.48876688 -0.31285635 2.3436058e-38
1 -0.47030717 -0.30764857 2.3436058e-38
1 -0.44972274 -0.3128998 2.3436058e-38
1 -0.42802984 -0.30927765 2.3436058e-38
1 -0.40830231 -0.31171736 2.3436058e-38
1 -0.39169264 -0.30513394 2.3436058e-38
1 -0.37170464 -0.30978772 2.3436058e-38
1 -0.34939265 -0.31038091 2.3436058e-38
1 -0.32938781 -0.31033668 2.3436058e-38
1 -0.3135092 -0.31154415 2.3436058e-38
1 -0.29170343 -0.30914032 2.3436058e-38
1 -0.2696664 -0.30894279 2.3436058e-38
1 -0.25187263 -0.3122929 2.3436058e-38
1 -0.22861081 -0.30980575 2.3436058e-38
1 -0.20937863 -0.3110562 2.3436058e-38
1 -0.19226778 -0.30767345 2.3436058e-38
1 -0.16836081 -0.30847278 2.3436058e-38
1 -0.14836222 -0.30990681 2.3436058e-38
1 -0.12866184 -0.31065333 2.3436058e-38
1 -0.10938567 -0.31113964 2.3436058e-38
1 -0.091050185 -0.3124491 2.3436058e-38
1 -0.06895411 -0.31387997 2.3436058e-38
1 -0.049392544 -0.31105632 2.3436058e-38
1 -0.02857415 -0.31082714 2.3436058e-38
1 -0.0082932385 -0.30761209 2.3436058e-38
1 0.011171222 -0.31154665 2.3436058e-38
1 0.032173492 -0.31077003 2.3436058e-38
1 0.049038135 -0.30899483 2.3436058e-38
1 0.069679834 -0.30605292 2.3436058e-38
1 0.089248762 -0.30904585 2.3436058e-38
1 0.1126368 -0.31035206 2.3436058e-38
1 0.12683743 -0.31072599 2.3436058e-38
1 0.14856629 -0.3108241 2.3436058e-38
1 0.17333055 -0.31119299 2.3436058e-38
1 0.18829553 -0.30849761 2.3436058e-38
1 0.21065332 -0.31019759 2.3436058e-38
1 0.22966386 -0.30811107 2.3436058e-38
1 0.24722688 -0.3090412 2.3436058e-38
1 0.27177802 -0.30785304 2.3436058e-38
1 0.28827229 -0.31196457 2.3436058e-38
1 0.30819479 -0.31265163 2.3436058e-38
1 0.32623842 -0.31061009 2.3436058e-38
1 0.34886917 -0.30991858 2.3436058e-38
1 0.37017313 -0.30840454 2.3436058e-38
1 0.39007089 -0.31121215 2.3436058e-38
1 0.41354179 -0.31064916 2.3436058e-38
1 0.42707041 -0.31097418 2.3436058e-38
1 0.4495455 -0.3111839 2.3436058e-38
1 0.46997717 -0.31019282 2.3436058e-38
1 0.48817024 -0.31065506 2.3436058e-38
1 0.50964576 -0.31074134 2.3436058e-38
1 0.53047931 -0.31234741 2.3436058e-38
1 0.55164659 -0.3103554 2.3436058e-38
1 0.56898624 -0.30961999 2.3436058e-38
1 0.59202433 -0.30883151 2.3436058e-38
1 0.60744363 -0.30796629 2.3436058e-38
1 0.63129514 -0.31031355 2.3436058e-38
1 0.64900541 -0.30862358 2.3436058e-38
1 0.66836673 -0.31061792 2.3436058e-38
1 0.69306916 -0.30680853 2.3436058e-38
1 0.70907772 -0.31264418 2.3436058e-38
1 0.73080665 -0.30578846 2.3436058e-38
1 0.74675089 -0.31151357 2.3436058e-38
1 0.77176905 -0.31269461 2.3436058e-38
1 0.78568631 -0.31235164 2.3436058e-38
1 0.80648446 -0.31381813 2.3436058e-38
1 0.83041686 -0.30787754 2.3436058e-38
1 0.85121626 -0.30945641 2.3436058e-38
1 0.87017894 -0.3115201 2.3436058e-38
1 0.89015305 -0.30679867 2.3436058e-38
1 0.91081488 -0.30823755 2.3436058e-38
1 0.93032688 -0.30853918 2.3436058e-38
1 0.94884127 -0.30883259 2.3436058e-38
1 0.97123164 -0.30915278 2.3436058e-38
1 0.99179482 -0.31133938 2.3436058e-38
1 -0.993231 -0.29078454 2.3436058e-38
1 -0.97104555 -0.29365912 2.3436058e-38
1 -0.95212334 -0.29006448 2.3436058e-38
1 -0.93046868 -0.28726736 2.3436058e-38
1 -0.90797067 -0.29565874 2.3436058e-38
1 -0.88471311 -0.28836101 2.3436058e-38
1 -0.86836547 -0.28852397 2.3436058e-38
1 -0.85217828 -0.28821239 2.3436058e-38
1 -0.8326568 -0.29146555 2.3436058e-38
1 -0.80177879 -0.28906044 2.3436058e-38
1 -0.79019415 -0.28924969 2.3436058e-38
1 -0.77219158 -0.29004639 2.3436058e-38
1 -0.75087851 -0.28935152 2.3436058e-38
1 -0.73060298 -0.29192287 2.3436058e-38
1 -0.70910102 -0.29092497 2.3436058e-38
1 -0.68840933 -0.29057115 2.3436058e-38
1 -0.66895735 -0.2867426 2.3436058e-38
1 -0.64912575 -0.29085705 2.3436058e-38
1 -0.62745857 -0.29113308 2.3436058e-38
1 -0.60885584 -0.28686762 2.3436058e-38
1 -0.59102964 -0.28957817 2.3436058e-38
1 -0.56921816 -0.29232511 2.3436058e-38
1 -0.54951948 -0.29084009 2.3436058e-38
1 -0.53085917 -0.29283121 2.3436058e-38
1 -0.50951147 -0.28610921 2.3436058e-38
1 -0.49053225 -0.29360962 2.3436058e-38
1 -0.46962062 -0.29193878 2.3436058e-38
1 -0.45036194 -0.29153436 2.3436058e-38
1 -0.43099412 -0.2893264 2.3436058e-38
1 -0.40809339 -0.28927892 2.3436058e-38
1 -0.38993359 -0.28998947 2.3436058e-38
1 -0.36862218 -0.29010764 2.3436058e-38
1 -0.35090011 -0.28830561 2.3436058e-38
1 -0.33142316 -0.28920215 2.3436058e-38
1 -0.30868542 -0.29100487 2.3436058e-38
1 -0.29094011 -0.29161093 2.3436058e-38
1 -0.26770222 -0.29141468 2.3436058e-38
1 -0.25062069 -0.28968477 2.3436058e-38
1 -0.23157653 -0.28986835 2.3436058e-38
1 -0.20974711 -0.29161873 2.3436058e-38
1 -0.18572387 -0.28906235 2.3436058e-38
1 -0.16384137 -0.29383802 2.3436058e-38
1 -0.15079235 -0.29122719 2.3436058e-38
1 -0.12913036 -0.29043588 2.3436058e-38
1 -0.11216233 -0.28986406 2.3436058e-38
1 -0.091230609 -0.28962579 2.3436058e-38
1 -0.073612176 -0.28752777 2.3436058e-38
1 -0.049777031 -0.28853035 2.3436058e-38
1 -0.033885796 -0.28991571 2.3436058e-38
1 -0.011204402 -0.29045519 2.3436058e-38
1 0.010305478 -0.28867394 2.3436058e-38
1 0.026876148 -0.29114074 2.3436058e-38
1 0.052743964 -0.28908306 2.3436058e-38
1 0.067833066 -0.29209054 2.3436058e-38
1 0.091822863 -0.29293367 2.3436058e-38
1 0.11089627 -0.29193845 2.3436058e-38
1 0.1329529 -0.29294682 2.3436058e-38
1 0.15150046 -0.28562421 2.3436058e-38
1 0.16825624 -0.28983489 2.3436058e-38
1 0.18917878 -0.29059222 2.3436058e-38
1 0.20917976 -0.29309905 2.3436058e-38
1 0.22828217 -0.29421782 2.3436058e-38
1 0.250631 -0.29170024 2.3436058e-38
1 0.27152288 -0.29194742 2.3436058e-38
1 0.29053876 -0.29123127 2.3436058e-38
1 0.30953419 -0.28934419 2.3436058e-38
1 0.33220068 -0.29233566 2.3436058e-38
1 0.35076109 -0.28670555 2.3436058e-38
1 0.36891556 -0.28977928 2.3436058e-38
1 0.38925648 -0.28995937 2.3436058e-38
1 0.4109627 -0.29110888 2.3436058e-38
1 0.43135548 -0.29122907 2.3436058e-38
1 0.44903046 -0.28787881 2.3436058e-38
1 0.46863437 -0.29091597 2.3436058e-38
1 0.48674172 -0.28792763 2.3436058e-38
1 0.51043099 -0.28697079 2.3436058e-38
1 0.52961731 -0.29154363 2.3436058e-38
1 0.55212408 -0.29321867 2.3436058e-38
1 0.5700466 -0.29351583 2.3436058e-38
1 0.58773685 -0.29061556 2.3436058e-38
1 0.6091609 -0.29022571 2.3436058e-38
1 0.63028663 -0.28706583 2.3436058e-38
1 0.64581287 -0.29341942 2.3436058e-38
1 0.67257631 -0.28796139 2.3436058e-38
1 0.68896753 -0.2892839 2.3436058e-38
1 0.70617801 -0.29268724 2.3436058e-38
1 0.7328288 -0.28974849 2.3436058e-38
1 0.74836159 -0.29166818 2.3436058e-38
1 0.7703023 -0.28641528 2.3436058e-38
1 0.79387712 -0.28961316 2.3436058e-38
1 0.8103376 -0.29200569 2.3436058e-38
1 0.82976276 -0.28973034 2.3436058e-38
1 0.85098493 -0.2905843 2.3436058e-38
1 0.87218803 -0.28975552 2.3436058e-38
1 0.8910408 -0.29439884 2.3436058e-38
1 0.91151184 -0.28978327 2.3436058e-38
1 0.93072116 -0.28963643 2.3436058e-38
1 0.95237136 -0.29221445 2.3436058e-38
1 0.96769732 -0.28986868 2.3436058e-38
1 0.99195647 -0.29277354 2.3436058e-38
1 -0.98874128 -0.27092066 2.3436058e-38
1 -0.96856225 -0.27367875 2.3436058e-38
1 -0.94890773 -0.27037168 2.3436058e-38
1 -0.93077642 -0.26912832 2.3436058e-38
1 -0.91324675 -0.26721865 2.3436058e-38
1 -0.88694358 -0.26620403 2.3436058e-38
1 -0.87052566 -0.26981482 2.3436058e-38
1 -0.84810191 -0.27280217 2.3436058e-38
1 -0.83042306 -0.27194375 2.3436058e-38
1 -0.8062712 -0.27027923 2.3436058e-38
1 -0.79204875 -0.27130213 2.3436058e-38
1 -0.770895 -0.26628366 2.3436058e-38
1 -0.75327224 -0.27008098 2.3436058e-38
1 -0.72954279 -0.27146012 2.3436058e-38
1 -0.71185482 -0.2698769 2.3436058e-38
1 -0.68943518 -0.27505237 2.3436058e-38
1 -0.67305398 -0.2687352 2.3436058e-38
1 -0.65214705 -0.2671583 2.3436058e-38
1 -0.62917328 -0.26822361 2.3436058e-38
1 -0.60733432 -0.27019751 2.3436058e-38
1 -0.587942 -0.26463842 2.3436058e-38
1 -0.56813228 -0.26720482 2.3436058e-38
1 -0.54357713 -0.26709652 2.3436058e-38
1 -0.53200364 -0.26570606 2.3436058e-38
1 -0.51120138 -0.27228996 2.3436058e-38
1 -0.48866233 -0.27044162 2.3436058e-38
1 -0.46803069 -0.26960164 2.3436058e-38
1 -0.44942421 -0.26997149 2.3436058e-38
1 -0.4290508 -0.26966676 2.3436058e-38
1 -0.4118847 -0.27310145 2.3436058e-38
1 -0.38954982 -0.26776099 2.3436058e-38
1 -0.37000379 -0.27062508 2.3436058e-38
1 -0.34831539 -0.27152967 2.3436058e-38
1 -0.33268738 -0.27038833 2.3436058e-38
1 -0.30973646 -0.26913357 2.3436058e-38
1 -0.29324222 -0.2733247 2.3436058e-38
1 -0.27196383 -0.27321622 2.3436058e-38
1 -0.24907425 -0.26916006 2.3436058e-38
1 -0.23067528 -0.27397728 2.3436058e-38
1 -0.21236956 -0.27391732 2.3436058e-38
1 -0.18922149 -0.26844913 2.3436058e-38
1 -0.17133474 -0.27171981 2.3436058e-38
1 -0.15150099 -0.26907945 2.3436058e-38
1 -0.13232814 -0.26904163 2.3436058e-38
1 -0.11025846 -0.26953122 2.3436058e-38
1 -0.093493402 -0.26857781 2.3436058e-38
1 -0.071634032 -0.26653713 2.3436058e-38
1 -0.050961018 -0.26784545 2.3436058e-38
1 -0.032827675 -0.27094328 2.3436058e-38
1 -0.0078894077 -0.2701357 2.3436058e-38
1 0.010520419 -0.26993796 2.3436058e-38
1 0.028387658 -0.27095574 2.3436058e-38
1 0.051241197 -0.26971975 2.3436058e-38
1 0.068166532 -0.26816303 2.3436058e-38
1 0.08704219 -0.27034259 2.3436058e-38
1 0.1088057 -0.27012187 2.3436058e-38
1 0.12985969 -0.2697835 2.3436058e-38
1 0.14686768 -0.26877299 2.3436058e-38
1 0.16814227 -0.27001968 2.3436058e-38
1 0.19098133 -0.26978183 2.3436058e-38
1 0.20808315 -0.27271318 2.3436058e-38
1 0.23119843 -0.26576728 2.3436058e-38
1 0.25249192 -0.27344036 2.3436058e-38
1 0.26918483 -0.27054754 2.3436058e-38
1 0.28966531 -0.27273837 2.3436058e-38
1 0.30999342 -0.2720587 2.3436058e-38
1 0.32983345 -0.27004761 2.3436058e-38
1 0.35048246 -0.26988685 2.3436058e-38
1 0.36590672 -0.26572505 2.3436058e-38
1 0.39135128 -0.27178517 2.3436058e-38
1 0.40950593 -0.27105781 2.3436058e-38
1 0.43260932 -0.27116454 2.3436058e-38
1 0.45411801 -0.27123374 2.3436058e-38
1 0.46927762 -0.26904163 2.3436058e-38
1 0.49137551 -0.27044848 2.3436058e-38
1 0.51008493 -0.27298465 2.3436058e-38
1 0.53101546 -0.26794165 2.3436058e-38
1 0.55470943 -0.27052695 2.3436058e-38
1 0.5692485 -0.26692075 2.3436058e-38
1 0.58987749 -0.26701275 2.3436058e-38
1 0.61081892 -0.26748833 2.3436058e-38
1 0.63032496 -0.26929569 2.3436058e-38
1 0.65148669 -0.2702508 2.3436058e-38
1 0.66954857 -0.27079865 2.3436058e-38
1 0.69252425 -0.2658723 2.3436058e-38
1 0.70915174 -0.26952663 2.3436058e-38
1 0.73185694 -0.26612425 2.3436058e-38
1 0.74967754 -0.26698717 2.3436058e-38
1 0.76669675 -0.26977873 2.3436058e-38
1 0.78911299 -0.27037156 2.3436058e-38
1 0.81160647 -0.26755229 2.3436058e-38
1 0.83134049 -0.27368721 2.3436058e-38
1 0.84790927 -0.2691825 2.3436058e-38
1 0.87440908 -0.2718448 2.3436058e-38
1 0.89084435 -0.2705729 2.3436058e-38
1 0.90904003 -0.26878041 2.3436058e-38
1 0.93327886 -0.27074152 2.3436058e-38
1 0.94751465 -0.2702828 2.3436058e-38
1 0.96872836 -0.26982659 2.3436058e-38
1 0.99276531 -0.26563424 2.3436058e-38
1 -0.99198079 -0.24839117 2.3436058e-38
1 -0.96902722 -0.25257531 2.3436058e-38
1 -0.94956684 -0.25107908 2.3436058e-38
1 -0.93312109 -0.24960832 2.3436058e-38
1 -0.90761 -0.24919713 2.3436058e-38
1 -0.89059019 -0.25028932 2.3436058e-38
1 -0.87055027 -0.25343007 2.3436058e-38
1 -0.84828615 -0.24951264 2.3436058e-38
1 -0.83223647 -0.2499115 2.3436058e-38
1 -0.80970579 -0.25025004 2.3436058e-38
1 -0.79008162 -0.25011906 2.3436058e-38
1 -0.76878965 -0.25239053 2.3436058e-38
1 -0.74980587 -0.25151104 2.3436058e-38
1 -0.72732008 -0.24834819 2.3436058e-38
1 -0.71225578 -0.25069532 2.3436058e-38
1 -0.69193411 -0.2486186 2.3436058e-38
1 -0.66686827 -0.25091064 2.3436058e-38
1 -0.65051854 -0.25056276 2.3436058e-38
1 -0.62999123 -0.2496448 2.3436058e-38
1 -0.60864085 -0.24804363 2.3436058e-38
1 -0.59278023 -0.24871869 2.3436058e-38
1 -0.56931061 -0.24783455 2.3436058e-38
1 -0.55399334 -0.2503984 2.3436058e-38
1 -0.53029025 -0.25207511 2.3436058e-38
1 -0.51193398 -0.25357518 2.3436058e-38
1 -0.49320507 -0.24946605 2.3436058e-38
1 -0.46828312 -0.25011104 2.3436058e-38
1 -0.44826972 -0.24999095 2.3436058e-38
1 -0.4296726 -0.25152647 2.3436058e-38
1 -0.40776524 -0.24893181 2.3436058e-38
1 -0.39088356 -0.25236422 2.3436058e-38
1 -0.36932918 -0.24985664 2.3436058e-38
1 -0.35016897 -0.25045741 2.3436058e-38
1 -0.3324686 -0.24794631 2.3436058e-38
1 -0.30979413 -0.24956219 2.3436058e-38
1 -0.28927809 -0.25143558 2.3436058e-38
1 -0.26872155 -0.24943368 2.3436058e-38
1 -0.24935429 -0.25207165 2.3436058e-38
1 -0.23037004 -0.24728732 2.3436058e-38
1 -0.21049389 -0.24974839 2.3436058e-38
1 -0.19106051 -0.24746746 2.3436058e-38
1 -0.16490644 -0.25100681 2.3436058e-38
1 -0.14872105 -0.25109801 2.3436058e-38
1 -0.12823257 -0.24949183 2.3436058e-38
1 -0.11139718 -0.24904113 2.3436058e-38
1 -0.0938586 -0.25300789 2.3436058e-38
1 -0.068594575 -0.25231832 2.3436058e-38
1 -0.049071025 -0.25098619 2.3436058e-38
1 -0.030661011 -0.24764104 2.3436058e-38
1 -0.012129711 -0.25182945 2.3436058e-38
1 0.010430058 -0.25202721 2.3436058e-38
1 0.028838396 -0.24789131 2.3436058e-38
1 0.053400706 -0.25262567 2.3436058e-38
1 0.069534302 -0.24928422 2.3436058e-38
1 0.089129314 -0.24715568 2.3436058e-38
1 0.10933565 -0.25086999 2.3436058e-38
1 0.1290244 -0.24882455 2.3436058e-38
1 0.14922388 -0.24687141 2.3436058e-38
1 0.16756159 -0.24696356 2.3436058e-38
1 0.19010724 -0.24983184 2.3436058e-38
1 0.21124071 -0.25578135 2.3436058e-38
1 0.23049991 -0.24930705 2.3436058e-38
1 0.25111532 -0.25026163 2.3436058e-38
1 0.27371207 -0.24802113 2.3436058e-38
1 0.29008523 -0.24927759 2.3436058e-38
1 0.30933961 -0.25087038 2.3436058e-38
1 0.32974359 -0.25080442 2.3436058e-38
1 0.34615982 -0.24725032 2.3436058e-38
1 0.36990756 -0.24882421 2.3436058e-38
1 0.38957247 -0.24612136 2.3436058e-38
1 0.40754741 -0.25427628 2.3436058e-38
1 0.42901462 -0.25186378 2.3436058e-38
1 0.45117465 -0.24982084 2.3436058e-38
1 0.46900707 -0.2473702 2.3436058e-38
1 0.48899913 -0.2525622 2.3436058e-38
1 0.50778329 -0.24444517 2.3436058e-38
1 0.53145438 -0.24981053 2.3436058e-38
1 0.54801506 -0.25276121 2.3436058e-38
1 0.56798536 -0.25411522 2.3436058e-38
1 0.58675873 -0.25157785 2.3436058e-38
1 0.61067438 -0.25071996 2.3436058e-38
1 0.62883335 -0.2496835 2.3436058e-38
1 0.65180588 -0.24739301 2.3436058e-38
1 0.67007554 -0.24899 2.3436058e-38
1 0.68902361 -0.24618201 2.3436058e-38
1 0.70932788 -0.24792272 2.3436058e-38
1 0.73057121 -0.25104806 2.3436058e-38
1 0.75095475 -0.24775778 2.3436058e-38
1 0.77139807 -0.24769795 2.3436058e-38
1 0.78871846 -0.249749 2.3436058e-38
1 0.80733597 -0.24811643 2.3436058e-38
1 0.82848006 -0.24910745 2.3436058e-38
1 0.85178596 -0.24949764 2.3436058e-38
1 0.87061214 -0.2486877 2.3436058e-38
1 0.88969642 -0.24833529 2.3436058e-38
1 0.90649587 -0.25093356 2.3436058e-38
1 0.93052906 -0.24594961 2.3436058e-38
1 0.94828701 -0.25287309 2.3436058e-38
1 0.97262371 -0.25089949 2.3436058e-38
1 0.98671079 -0.25047487 2.3436058e-38
1 -0.9902274 -0.23295572 2.3436058e-38
1 -0.96717674 -0.23141924 2.3436058e-38
1 -0.95127881 -0.22896275 2.3436058e-38
1 -0.93175966 -0.22995444 2.3436058e-38
1 -0.91004395 -0.2307076 2.3436058e-38
1 -0.88877422 -0.23110178 2.3436058e-38
1 -0.8674472 -0.23143661 2.3436058e-38
1 -0.8500374 -0.2260233 2.3436058e-38
1 -0.83062708 -0.22815171 2.3436058e-38
1 -0.80849975 -0.23168644 2.3436058e-38
1 -0.79046094 -0.23364694 2.3436058e-38
1 -0.77068287 -0.22929002 2.3436058e-38
1 -0.75128829 -0.23001535 2.3436058e-38
1 -0.72855264 -0.23087206 2.3436058e-38
1 -0.71162438 -0.22712576 2.3436058e-38
1 -0.68953401 -0.22863457 2.3436058e-38
1 -0.66979581 -0.22973742 2.3436058e-38
1 -0.65293366 -0.22884715 2.3436058e-38
1 -0.63004315 -0.22634169 2.3436058e-38
1 -0.60726172 -0.23424679 2.3436058e-38
1 -0.59106177 -0.22996888 2.3436058e-38
1 -0.57018191 -0.23224264 2.3436058e-38
1 -0.54645026 -0.23129213 2.3436058e-38
1 -0.53391594 -0.22881401 2.3436058e-38
1 -0.51107877 -0.23143341 2.3436058e-38
1 -0.48864952 -0.23228629 2.3436058e-38
1 -0.46967456 -0.22941373 2.3436058e-38
1 -0.45406017 -0.22769167 2.3436058e-38
1 -0.43256944 -0.2269696 2.3436058e-38
1 -0.41209576 -0.22996764 2.3436058e-38
1 -0.38981301 -0.23258072 2.3436058e-38
1 -0.36863014 -0.22957015 2.3436058e-38
1 -0.34890318 -0.23113987 2.3436058e-38
1 -0.32822785 -0.23031421 2.3436058e-38
1 -0.30800653 -0.23273253 2.3436058e-38
1 -0.28577581 -0.22822945 2.3436058e-38
1 -0.26717019 -0.2262522 2.3436058e-38
1 -0.25155708 -0.23175354 2.3436058e-38
1 -0.23056547 -0.23110217 2.3436058e-38
1 -0.21267557 -0.23200738 2.3436058e-38
1 -0.19047228 -0.22982274 2.3436058e-38
1 -0.16927347 -0.23363411 2.3436058e-38
1 -0.14449804 -0.23023479 2.3436058e-38
1 -0.12877984 -0.23018689 2.3436058e-38
1 -0.11134339 -0.2321426 2.3436058e-38
1 -0.089996338 -0.23202741 2.3436058e-38
1 -0.069889173 -0.23257011 2.3436058e-38
1 -0.048851609 -0.22714275 2.3436058e-38
1 -0.028353956 -0.22993067 2.3436058e-38
1 -0.012850966 -0.22621183 2.3436058e-38
1 0.0098196138 -0.22860697 2.3436058e-38
1 0.029439783 -0.23029713 2.3436058e-38
1 0.051544599 -0.22994176 2.3436058e-38
1 0.067819498 -0.22844182 2.3436058e-38
1 0.092842482 -0.22955561 2.3436058e-38
1 0.1122076 -0.23133352 2.3436058e-38
1 0.13043571 -0.22959673 2.3436058e-38
1 0.15069942 -0.23061897 2.3436058e-38
1 0.17098093 -0.23035035 2.3436058e-38
1 0.18844494 -0.22918367 2.3436058e-38
1 0.21138009 -0.23143511 2.3436058e-38
1 0.23056889 -0.2304337 2.3436058e-38
1 0.25005674 -0.23293626 2.3436058e-38
1 0.27408296 -0.22801886 2.3436058e-38
1 0.28956556 -0.22465105 2.3436058e-38
1 0.31302404 -0.23224264 2.3436058e-38
1 0.33150667 -0.2354552 2.3436058e-38
1 0.3509545 -0.23011149 2.3436058e-38
1 0.36883497 -0.22843966 2.3436058e-38
1 0.38863078 -0.22868933 2.3436058e-38
1 0.40961251 -0.2294786 2.3436058e-38
1 0.42842478 -0.23104434 2.3436058e-38
1 0.44844899 -0.2286911 2.3436058e-38
1 0.47123346 -0.23042217 2.3436058e-38
1 0.48664436 -0.22912414 2.3436058e-38
1 0.51034641 -0.23109977 2.3436058e-38
1 0.5289079 -0.22909331 2.3436058e-38
1 0.547203 -0.22859393 2.3436058e-38
1 0.57390273 -0.22860131 2.3436058e-38
1 0.59112847 -0.23101199 2.3436058e-38
1 0.60987103 -0.23086394 2.3436058e-38
1 0.62965262 -0.2280668 2.3436058e-38
1 0.64951056 -0.23246682 2.3436058e-38
1 0.67035151 -0.23045385 2.3436058e-38
1 0.69287342 -0.22624464 2.3436058e-38
1 0.70979095 -0.22835159 2.3436058e-38
1 0.73362279 -0.22956881 2.3436058e-38
1 0.75232553 -0.22958836 2.3436058e-38
1 0.77019185 -0.23164368 2.3436058e-38
1 0.79060912 -0.23275539 2.3436058e-38
1 0.81352293 -0.22923395 2.3436058e-38
1 0.82924253 -0.23238559 2.3436058e-38
1 0.85150063 -0.23174326 2.3436058e-38
1 0.87130988 -0.23084593 2.3436058e-38
1 0.89245605 -0.23151051 2.3436058e-38
1 0.91549289 -0.22980985 2.3436058e-38
1 0.92983437 -0.23050158 2.3436058e-38
1 0.94659472 -0.23050833 2.3436058e-38
1 0.97410107 -0.23202816 2.3436058e-38
1 0.9886412 -0.22776587 2.3436058e-38
1 -0.99025726 -0.20948577 2.3436058e-38
1 -0.96805096 -0.20799403 2.3436058e-38
1 -0.95201266 -0.20942 2.3436058e-38
1 -0.92903632 -0.21006852 2.3436058e-38
1 -0.90995455 -0.20994119 2.3436058e-38
1 -0.88765299 -0.21364231 2.3436058e-38
1 -0.86921316 -0.20795032 2.3436058e-38
1 -0.84717864 -0.20987007 2.3436058e-38
1 -0.832753 -0.20816286 2.3436058e-38
1 -0.80952805 -0.20924023 2.3436058e-38
1 -0.79180217 -0.21250816 2.3436058e-38
1 -0.77078587 -0.20691678 2.3436058e-38
1 -0.74947643 -0.20901147 2.3436058e-38
1 -0.7262696 -0.20940274 2.3436058e-38
1 -0.71009737 -0.21063432 2.3436058e-38
1 -0.68998563 -0.20894305 2.3436058e-38
1 -0.6666795 -0.20905185 2.3436058e-38
1 -0.64845192 -0.20938265 2.3436058e-38
1 -0.63295072 -0.21050447 2.3436058e-38
1 -0.60970944 -0.2081923 2.3436058e-38
1 -0.58776343 -0.21071193 2.3436058e-38
1 -0.57462573 -0.20944905 2.3436058e-38
1 -0.55079383 -0.20949924 2.3436058e-38
1 -0.53069472 -0.20902061 2.3436058e-38
1 -0.50949234 -0.21017763 2.3436058e-38
1 -0.48805588 -0.21100593 2.3436058e-38
1 -0.46959686 -0.20903993 2.3436058e-38
1 -0.45156068 -0.21038914 2.3436058e-38
1 -0.43085775 -0.20872208 2.3436058e-38
1 -0.41273746 -0.21038423 2.3436058e-38
1 -0.39048862 -0.21051311 2.3436058e-38
1 -0.36865231 -0.21201341 2.3436058e-38
1 -0.35021678 -0.21204658 2.3436058e-38
1 -0.33106086 -0.21126564 2.3436058e-38
1 -0.3077732 -0.2073667 2.3436058e-38
1 -0.29119837 -0.21101935 2.3436058e-38
1 -0.27560532 -0.2092241 2.3436058e-38
1 -0.24970433 -0.21039674 2.3436058e-38
1 -0.22765701 -0.21367693 2.3436058e-38
1 -0.20948949 -0.21013771 2.3436058e-38
1 -0.19103102 -0.21242464 2.3436058e-38
1 -0.17137332 -0.20813029 2.3436058e-38
1 -0.1486138 -0.21035986 2.3436058e-38
1 -0.13233209 -0.20734569 2.3436058e-38
1 -0.1130805 -0.20967494 2.3436058e-38
1 -0.088407658 -0.2092865 2.3436058e-38
1 -0.07096529 -0.21500468 2.3436058e-38
1 -0.050736047 -0.20957626 2.3436058e-38
1 -0.031788554 -0.20682241 2.3436058e-38
1 -0.0082374923 -0.20951489 2.3436058e-38
1 0.010952896 -0.21173324 2.3436058e-38
1 0.030465066 -0.21117318 2.3436058e-38
1 0.049559392 -0.21079861 2.3436058e-38
1 0.066837192 -0.21199208 2.3436058e-38
1 0.090691023 -0.20908196 2.3436058e-38
1 0.11127558 -0.21171355 2.3436058e-38
1 0.12901789 -0.21123171 2.3436058e-38
1 0.14898437 -0.20879096 2.3436058e-38
1 0.16858666 -0.20926425 2.3436058e-38
1 0.18942809 -0.20965791 2.3436058e-38
1 0.20967607 -0.21131305 2.3436058e-38
1 0.2296381 -0.20644227 2.3436058e-38
1 0.2486541 -0.20971107 2.3436058e-38
1 0.27096167 -0.21064986 2.3436058e-38
1 0.2885783 -0.21068349 2.3436058e-38
1 0.31090069 -0.2088791 2.3436058e-38
1 0.33045116 -0.20994173 2.3436058e-38
1 0.35036677 -0.20906729 2.3436058e-38
1 0.36919707 -0.21407652 2.3436058e-38
1 0.39022243 -0.21102738 2.3436058e-38
1 0.40919387 -0.21111912 2.3436058e-38
1 0.43087164 -0.20798489 2.3436058e-38
1 0.45053548 -0.21303505 2.3436058e-38
1 0.46694264 -0.20795631 2.3436058e-38
1 0.49158022 -0.20900209 2.3436058e-38
1 0.50902927 -0.21262409 2.3436058e-38
1 0.53302038 -0.20677757 2.3436058e-38
1 0.54957122 -0.21172756 2.3436058e-38
1 0.57194859 -0.21128556 2.3436058e-38
1 0.59038991 -0.20998508 2.3436058e-38
1 0.61066091 -0.20880088 2.3436058e-38
1 0.62930858 -0.20951863 2.3436058e-38
1 0.65193301 -0.20618086 2.3436058e-38
1 0.668899 -0.21003652 2.3436058e-38
1 0.69315302 -0.20931454 2.3436058e-38
1 0.70924699 -0.21244431 2.3436058e-38
1 0.73041314 -0.20882516 2.3436058e-38
1 0.75182348 -0.20899101 2.3436058e-38
1 0.76976269 -0.20923805 2.3436058e-38
1 0.79334652 -0.21076711 2.3436058e-38
1 0.80931771 -0.20914523 2.3436058e-38
1 0.8309204 -0.21277867 2.3436058e-38
1 0.85010129 -0.2101361 2.3436058e-38
1 0.87097949 -0.20625095 2.3436058e-38
1 0.88767755 -0.20757163 2.3436058e-38
1 0.90925437 -0.20821829 2.3436058e-38
1 0.92914563 -0.20492601 2.3436058e-38
1 0.95188385 -0.20987801 2.3436058e-38
1 0.96792817 -0.20920934 2.3436058e-38
1 0.98813862 -0.20692711 2.3436058e-38
1 -0.99090737 -0.19164376 2.3436058e-38
1 -0.96982378 -0.18976112 2.3436058e-38
1 -0.94658345 -0.18970039 2.3436058e-38
1 -0.92801267 -0.18913352 2.3436058e-38
1 -0.91265887 -0.18844716 2.3436058e-38
1 -0.89346439 -0.19148208 2.3436058e-38
1 -0.87212062 -0.19374704 2.3436058e-38
1 -0.85160941 -0.191513 2.3436058e-38
1 -0.83026111 -0.1895763 2.3436058e-38
1 -0.80834377 -0.18990991 2.3436058e-38
1 -0.78831267 -0.18904455 2.3436058e-38
1 -0.77057338 -0.19203924 2.3436058e-38
1 -0.74866265 -0.19167827 2.3436058e-38
1 -0.73039007 -0.18915826 2.3436058e-38
1 -0.71133965 -0.19125371 2.3436058e-38
1 -0.69036627 -0.18991795 2.3436058e-38
1 -0.67290491 -0.19320574 2.3436058e-38
1 -0.64660561 -0.19043539 2.3436058e-38
1 -0.63056046 -0.18947099 2.3436058e-38
1 -0.61024266 -0.18915962 2.3436058e-38
1 -0.58871502 -0.1889112 2.3436058e-38
1 -0.56697464 -0.18788564 2.3436058e-38
1 -0.5492574 -0.19090186 2.3436058e-38
1 -0.53130853 -0.19170509 2.3436058e-38
1 -0.51219893 -0.18670912 2.3436058e-38
1 -0.49462619 -0.19001573 2.3436058e-38
1 -0.47123104 -0.18804996 2.3436058e-38
1 -0.45089531 -0.19271475 2.3436058e-38
1 -0.42876393 -0.18879656 2.3436058e-38
1 -0.4113113 -0.19069715 2.3436058e-38
1 -0.38663203 -0.19099782 2.3436058e-38
1 -0.36782947 -0.19117853 2.3436058e-38
1 -0.35308182 -0.19014403 2.3436058e-38
1 -0.32968259 -0.18925516 2.3436058e-38
1 -0.31145865 -0.19159031 2.3436058e-38
1 -0.2882517 -0.18936029 2.3436058e-38
1 -0.2690424 -0.18759415 2.3436058e-38
1 -0.25114027 -0.18978727 2.3436058e-38
1 -0.22601596 -0.19022864 2.3436058e-38
1 -0.20991525 -0.19047436 2.3436058e-38
1 -0.19058317 -0.19311337 2.3436058e-38
1 -0.16910346 -0.18711117 2.3436058e-38
1 -0.15074053 -0.19122672 2.3436058e-38
1 -0.13147777 -0.18965246 2.3436058e-38
1 -0.11036354 -0.19483739 2.3436058e-38
1 -0.089059867 -0.191341 2.3436058e-38
1 -0.069029488 -0.19038709 2.3436058e-38
1 -0.049636643 -0.19073948 2.3436058e-38
1 -0.030373972 -0.1902955 2.3436058e-38
1 -0.0095657622 -0.18897678 2.3436058e-38
1 0.0093918908 -0.19174385 2.3436058e-38
1 0.031183442 -0.19006512 2.3436058e-38
1 0.050599374 -0.19103514 2.3436058e-38
1 0.070195496 -0.19143222 2.3436058e-38
1 0.092162661 -0.19144297 2.3436058e-38
1 0.11077738 -0.19044577 2.3436058e-38
1 0.12892798 -0.19182701 2.3436058e-38
1 0.14753711 -0.19533455 2.3436058e-38
1 0.16786835 -0.18689094 2.3436058e-38
1 0.1923719 -0.19140494 2.3436058e-38
1 0.21248783 -0.18808694 2.3436058e-38
1 0.22908585 -0.18949246 2.3436058e-38
1 0.25404173 -0.19314736 2.3436058e-38
1 0.27213454 -0.18600321 2.3436058e-38
1 0.29345265 -0.19403963 2.3436058e-38
1 0.30936012 -0.1930428 2.3436058e-38
1 0.33192527 -0.18877366 2.3436058e-38
1 0.34881401 -0.19199133 2.3436058e-38
1 0.36799237 -0.19029376 2.3436058e-38
1 0.39258042 -0.18968326 2.3436058e-38
1 0.4098199 -0.19418898 2.3436058e-38
1 0.43151292 -0.19122098 2.3436058e-38
1 0.44942927 -0.19007841 2.3436058e-38
1 0.47330797 -0.19216253 2.3436058e-38
1 0.49185747 -0.18822935 2.3436058e-38
1 0.51012939 -0.19426417 2.3436058e-38
1 0.5310787 -0.19063936 2.3436058e-38
1 0.54916537 -0.19048023 2.3436058e-38
1 0.5682627 -0.19235633 2.3436058e-38
1 0.59230727 -0.19010487 2.3436058e-38
1 0.61026555 -0.18947168 2.3436058e-38
1 0.63053691 -0.19087732 2.3436058e-38
1 0.65237945 -0.18930864 2.3436058e-38
1 0.67102969 -0.19145651 2.3436058e-38
1 0.68821216 -0.19108541 2.3436058e-38
1 0.7063629 -0.1884592 2.3436058e-38
1 0.73009038 -0.19176173 2.3436058e-38
1 0.75011551 -0.18899614 2.3436058e-38
1 0.77249402 -0.19071321 2.3436058e-38
1 0.79175103 -0.18978398 2.3436058e-38
1 0.80853313 -0.18824759 2.3436058e-38
1 0.83064198 -0.18705523 2.3436058e-38
1 0.85050434 -0.18790853 2.3436058e-38
1 0.87077248 -0.1868552 2.3436058e-38
1 0.88800681 -0.19622177 2.3436058e-38
1 0.90890592 -0.19173066 2.3436058e-38
1 0.9293555 -0.18946731 2.3436058e-38
1 0.9533866 -0.19074552 2.3436058e-38
1 0.96897274 -0.18884712 2.3436058e-38
1 0.98918581 -0.18927805 2.3436058e-38
1 -0.9904027 -0.17048524 2.3436058e-38
1 -0.96775955 -0.1689765 2.3436058e-38
1 -0.94958806 -0.16951375 2.3436058e-38
1 -0.92891282 -0.1709476 2.3436058e-38
1 -0.90924031 -0.1667816 2.3436058e-38
1 -0.89018059 -0.17182867 2.3436058e-38
1 -0.86735052 -0.17194259 2.3436058e-38
1 -0.84922153 -0.16881762 2.3436058e-38
1 -0.83195728 -0.17391133 2.3436058e-38
1 -0.81118017 -0.16943429 2.3436058e-38
1 -0.78616476 -0.17077269 2.3436058e-38
1 -0.77144277 -0.17246343 2.3436058e-38
1 -0.75243318 -0.17151511 2.3436058e-38
1 -0.73142368 -0.16778572 2.3436058e-38
1 -0.71342587 -0.17128389 2.3436058e-38
1 -0.6907196 -0.16660061 2.3436058e-38
1 -0.66609228 -0.17182371 2.3436058e-38
1 -0.65006506 -0.16966486 2.3436058e-38
1 -0.62649071 -0.17005332 2.3436058e-38
1 -0.61133975 -0.1727266 2.3436058e-38
1 -0.58826196 -0.17073217 2.3436058e-38
1 -0.56541026 -0.16891108 2.3436058e-38
1 -0.54944855 -0.16979457 2.3436058e-38
1 -0.53166813 -0.16965948 2.3436058e-38
1 -0.50955218 -0.17157459 2.3436058e-38
1 -0.49050689 -0.17052245 2.3436058e-38
1 -0.46551985 -0.16955347 2.3436058e-38
1 -0.45272267 -0.16915089 2.3436058e-38
1 -0.43055922 -0.17244788 2.3436058e-38
1 -0.40634257 -0.17167652 2.3436058e-38
1 -0.38837346 -0.16971357 2.3436058e-38
1 -0.3695215 -0.17080018 2.3436058e-38
1 -0.34969512 -0.17012158 2.3436058e-38
1 -0.33163309 -0.17054695 2.3436058e-38
1 -0.30931789 -0.17269321 2.3436058e-38
1 -0.28968078 -0.17090866 2.3436058e-38
1 -0.26925918 -0.17169128 2.3436058e-38
1 -0.24880408 -0.16979615 2.3436058e-38
1 -0.23081855 -0.16922662 2.3436058e-38
1 -0.20543146 -0.17046499 2.3436058e-38
1 -0.19222122 -0.17192769 2.3436058e-38
1 -0.16950904 -0.16967413 2.3436058e-38
1 -0.15088807 -0.17238365 2.3436058e-38
1 -0.12930638 -0.17004496 2.3436058e-38
1 -0.1116333 -0.16950934 2.3436058e-38
1 -0.08922442 -0.16950843 2.3436058e-38
1 -0.06916552 -0.17243171 2.3436058e-38
1 -0.049257904 -0.17059755 2.3436058e-38
1 -0.034485053 -0.17145543 2.3436058e-38
1 -0.012425328 -0.17026524 2.3436058e-38
1 0.0099075641 -0.16937518 2.3436058e-38
1 0.031229537 -0.17045657 2.3436058e-38
1 0.047758184 -0.16769052 2.3436058e-38
1 0.068690822 -0.17028363 2.3436058e-38
1 0.089526534 -0.16931668 2.3436058e-38
1 0.11308422 -0.17182794 2.3436058e-38
1 0.13092934 -0.17074728 2.3436058e-38
1 0.14918661 -0.16686982 2.3436058e-38
1 0.17177168 -0.1703497 2.3436058e-38
1 0.18929721 -0.16839267 2.3436058e-38
1 0.21082291 -0.16875938 2.3436058e-38
1 0.22962689 -0.16884792 2.3436058e-38
1 0.24962038 -0.17099623 2.3436058e-38
1 0.26937801 -0.16924305 2.3436058e-38
1 0.29128671 -0.17076387 2.3436058e-38
1 0.31191787 -0.16965778 2.3436058e-38
1 0.32994899 -0.17122541 2.3436058e-38
1 0.34802127 -0.16998303 2.3436058e-38
1 0.3726325 -0.17339292 2.3436058e-38
1 0.3906413 -0.17688265 2.3436058e-38
1 0.40641505 -0.16767052 2.3436058e-38
1 0.4290832 -0.17046328 2.3436058e-38
1 0.45070899 -0.16888216 2.3436058e-38
1 0.47064367 -0.16870356 2.3436058e-38
1 0.49174342 -0.17051698 2.3436058e-38
1 0.51180279 -0.16672778 2.3436058e-38
1 0.52819508 -0.16877821 2.3436058e-38
1 0.5486778 -0.16739212 2.3436058e-38
1 0.57328159 -0.1691404 2.3436058e-38
1 0.58806169 -0.17279094 2.3436058e-38
1 0.6127674 -0.1690522 2.3436058e-38
1 0.6261639 -0.17290907 2.3436058e-38
1 0.64980024 -0.17005777 2.3436058e-38
1 0.66975188 -0.16911237 2.3436058e-38
1 0.68780237 -0.16790798 2.3436058e-38
1 0.71055245 -0.16948754 2.3436058e-38
1 0.73170292 -0.17158176 2.3436058e-38
1 0.75107306 -0.17043294 2.3436058e-38
1 0.76951313 -0.17068855 2.3436058e-38
1 0.79057854 -0.1730011 2.3436058e-38
1 0.81205165 -0.17046583 2.3436058e-38
1 0.83036345 -0.17118019 2.3436058e-38
1 0.85211742 -0.16693287 2.3436058e-38
1 0.8667984 -0.1724081 2.3436058e-38
1 0.89299685 -0.17129906 2.3436058e-38
1 0.90907544 -0.17054538 2.3436058e-38
1 0.92783159 -0.16931945 2.3436058e-38
1 0.94813818 -0.16759019 2.3436058e-38
1 0.96948761 -0.16986541 2.3436058e-38
1 0.9858638 -0.17057288 2.3436058e-38
1 -0.99047422 -0.14664611 2.3436058e-38
1 -0.96632087 -0.14946842 2.3436058e-38
1 -0.95114672 -0.15226769 2.3436058e-38
1 -0.93060219 -0.15034445 2.3436058e-38
1 -0.91224945 -0.15206063 2.3436058e-38
1 -0.89320737 -0.14987469 2.3436058e-38
1 -0.86845386 -0.1512073 2.3436058e-38
1 -0.84825629 -0.14813142 2.3436058e-38
1 -0.82917273 -0.15070768 2.3436058e-38
1 -0.8048017 -0.15440774 2.3436058e-38
1 -0.79056948 -0.14809397 2.3436058e-38
1 -0.76936853 -0.14752364 2.3436058e-38
1 -0.74880266 -0.14800684 2.3436058e-38
1 -0.73111022 -0.14800709 2.3436058e-38
1 -0.70933789 -0.15266699 2.3436058e-38
1 -0.688649 -0.15069406 2.3436058e-38
1 -0.6668824 -0.15149736 2.3436058e-38
1 -0.65076113 -0.15096124 2.3436058e-38
1 -0.63075393 -0.15231501 2.3436058e-38
1 -0.6127823 -0.1487844 2.3436058e-38
1 -0.59148675 -0.1481882 2.3436058e-38
1 -0.56719553 -0.15302426 2.3436058e-38
1 -0.55012792 -0.15040708 2.3436058e-38
1 -0.52949065 -0.15020764 2.3436058e-38
1 -0.51251334 -0.15328002 2.3436058e-38
1 -0.4894563 -0.15082036 2.3436058e-38
1 -0.47181267 -0.15005212 2.3436058e-38
1 -0.45360267 -0.14850229 2.3436058e-38
1 -0.42904687 -0.15201986 2.3436058e-38
1 -0.41267431 -0.15015808 2.3436058e-38
1 -0.39042073 -0.15182072 2.3436058e-38
1 -0.37127322 -0.14877319 2.3436058e-38
1 -0.35088894 -0.14976698 2.3436058e-38
1 -0.33126488 -0.14856842 2.3436058e-38
1 -0.30599299 -0.14960633 2.3436058e-38
1 -0.28838032 -0.15140395 2.3436058e-38
1 -0.27080685 -0.15054914 2.3436058e-38
1 -0.25229472 -0.14644265 2.3436058e-38
1 -0.22758228 -0.15073019 2.3436058e-38
1 -0.20843942 -0.14733171 2.3436058e-38
1 -0.18956794 -0.14866257 2.3436058e-38
1 -0.17271002 -0.15053266 2.3436058e-38
1 -0.15253115 -0.15337834 2.3436058e-38
1 -0.13176833 -0.14482108 2.3436058e-38
1 -0.11145519 -0.15225805 2.3436058e-38
1 -0.090861797 -0.14933763 2.3436058e-38
1 -0.071310759 -0.15078554 2.3436058e-38
1 -0.050895303 -0.15315278 2.3436058e-38
1 -0.026563315 -0.14903517 2.3436058e-38
1 -0.0099111972 -0.15388735 2.3436058e-38
1 0.0098845623 -0.15267339 2.3436058e-38
1 0.029706145 -0.14918394 2.3436058e-38
1 0.048192304 -0.15163267 2.3436058e-38
1 0.071080372 -0.14856848 2.3436058e-38
1 0.089755915 -0.15196863 2.3436058e-38
1 0.11398247 -0.14868106 2.3436058e-38
1 0.132047 -0.15000516 2.3436058e-38
1 0.15231167 -0.14958897 2.3436058e-38
1 0.16752651 -0.15046476 2.3436058e-38
1 0.18826661 -0.15417314 2.3436058e-38
1 0.2109437 -0.14960644 2.3436058e-38
1 0.23173788 -0.14953892 2.3436058e-38
1 0.24898849 -0.15135325 2.3436058e-38
1 0.27006307 -0.15045241 2.3436058e-38
1 0.29030219 -0.14753675 2.3436058e-38
1 0.30850369 -0.14859687 2.3436058e-38
1 0.33073542 -0.14883518 2.3436058e-38
1 0.35387671 -0.14913797 2.3436058e-38
1 0.36866346 -0.14956218 2.3436058e-38
1 0.39016125 -0.15138464 2.3436058e-38
1 0.41132572 -0.15092908 2.3436058e-38
1 0.43041006 -0.15137787 2.3436058e-38
1 0.44869605 -0.14944012 2.3436058e-38
1 0.46892473 -0.14735675 2.3436058e-38
1 0.48990092 -0.14921704 2.3436058e-38
1 0.51113224 -0.15360899 2.3436058e-38
1 0.53010738 -0.14766721 2.3436058e-38
1 0.54823065 -0.15430528 2.3436058e-38
1 0.5682959 -0.14991154 2.3436058e-38
1 0.58875012 -0.14740114 2.3436058e-38
1 0.60659152 -0.15325792 2.3436058e-38
1 0.62894243 -0.15014639 2.3436058e-38
1 0.64960206 -0.15012246 2.3436058e-38
1 0.6679368 -0.14717948 2.3436058e-38
1 0.69061393 -0.1533374 2.3436058e-38
1 0.71126288 -0.14890788 2.3436058e-38
1 0.72900778 -0.15090153 2.3436058e-38
1 0.75180274 -0.14743465 2.3436058e-38
1 0.77101892 -0.15335952 2.3436058e-38
1 0.79176486 -0.14867437 2.3436058e-38
1 0.81104863 -0.15105501 2.3436058e-38
1 0.82657939 -0.1502977 2.3436058e-38
1 0.85169148 -0.14980984 2.3436058e-38
1 0.87149429 -0.14637962 2.3436058e-38
1 0.89192688 -0.15352985 2.3436058e-38
1 0.9095161 -0.15041056 2.3436058e-38
1 0.93338805 -0.15093991 2.3436058e-38
1 0.95083445 -0.14803432 2.3436058e-38
1 0.96832299 -0.14951998 2.3436058e-38
1 0.98644596 -0.15129793 2.3436058e-38
1 -0.98776758 -0.13062572 2.3436058e-38
1 -0.97068828 -0.13001499 2.3436058e-38
1 -0.94738537 -0.12724696 2.3436058e-38
1 -0.93044662 -0.12703538 2.3436058e-38
1 -0.91059291 -0.13120615 2.3436058e-38
1 -0.89361918 -0.13415536 2.3436058e-38
1 -0.8685739 -0.13180232 2.3436058e-38
1 -0.85555303 -0.13012958 2.3436058e-38
1 -0.82891798 -0.1282171 2.3436058e-38
1 -0.80763382 -0.13112025 2.3436058e-38
1 -0.78671694 -0.12872148 2.3436058e-38
1 -0.76695526 -0.13124184 2.3436058e-38
1 -0.75278163 -0.12853523 2.3436058e-38
1 -0.73058999 -0.13019314 2.3436058e-38
1 -0.71156573 -0.13438368 2.3436058e-38
1 -0.69067901 -0.12905066 2.3436058e-38
1 -0.67109334 -0.13133782 2.3436058e-38
1 -0.64959985 -0.13006409 2.3436058e-38
1 -0.62975311 -0.13153492 2.3436058e-38
1 -0.60960472 -0.1319513 2.3436058e-38
1 -0.58733302 -0.12981531 2.3436058e-38
1 -0.57281446 -0.132026 2.3436058e-38
1 -0.54923403 -0.13066612 2.3436058e-38
1 -0.5311743 -0.12938558 2.3436058e-38
1 -0.50881308 -0.13151699 2.3436058e-38
1 -0.49221799 -0.1255289 2.3436058e-38
1 -0.47209859 -0.12892945 2.3436058e-38
1 -0.44652486 -0.1310339 2.3436058e-38
1 -0.42991146 -0.12781787 2.3436058e-38
1 -0.408647 -0.12891258 2.3436058e-38
1 -0.38923016 -0.13008203 2.3436058e-38
1 -0.37085947 -0.13057885 2.3436058e-38
1 -0.34904042 -0.12878309 2.3436058e-38
1 -0.3287214 -0.12758911 2.3436058e-38
1 -0.30913654 -0.12865071 2.3436058e-38
1 -0.29157376 -0.12901926 2.3436058e-38
1 -0.26683852 -0.12936234 2.3436058e-38
1 -0.24700791 -0.12977672 2.3436058e-38
1 -0.23130333 -0.13127935 2.3436058e-38
1 -0.21064492 -0.13314743 2.3436058e-38
1 -0.19103298 -0.12732553 2.3436058e-38
1 -0.16875017 -0.12941515 2.3436058e-38
1 -0.14967063 -0.12929884 2.3436058e-38
1 -0.13081539 -0.12919605 2.3436058e-38
1 -0.1109174 -0.13129802 2.3436058e-38
1 -0.09279716 -0.13009274 2.3436058e-38
1 -0.068683892 -0.13136308 2.3436058e-38
1 -0.049252685 -0.1312594 2.3436058e-38
1 -0.032112598 -0.13087755 2.3436058e-38
1 -0.01290278 -0.13104343 2.3436058e-38
1 0.011925085 -0.12996231 2.3436058e-38
1 0.030858094 -0.12962553 2.3436058e-38
1 0.049879741 -0.13044544 2.3436058e-38
1 0.071254358 -0.1311512 2.3436058e-38
1 0.090717986 -0.13161564 2.3436058e-38
1 0.10657233 -0.13023365 2.3436058e-38
1 0.12633434 -0.12962267 2.3436058e-38
1 0.15087906 -0.12895629 2.3436058e-38
1 0.16882217 -0.13137987 2.3436058e-38
1 0.19038603 -0.13022825 2.3436058e-38
1 0.21173294 -0.12784834 2.3436058e-38
1 0.23187502 -0.13317926 2.3436058e-38
1 0.24828079 -0.13096645 2.3436058e-38
1 0.2669934 -0.12982428 2.3436058e-38
1 0.28501362 -0.12777805 2.3436058e-38
1 0.30957466 -0.13005961 2.3436058e-38
1 0.33068734 -0.12981002 2.3436058e-38
1 0.34925494 -0.12847684 2.3436058e-38
1 0.36859843 -0.1317749 2.3436058e-38
1 0.39081931 -0.12919521 2.3436058e-38
1 0.40930304 -0.1333216 2.3436058e-38
1 0.43008217 -0.12971853 2.3436058e-38
1 0.44858259 -0.12868862 2.3436058e-38
1 0.46860775 -0.13192654 2.3436058e-38
1 0.49230438 -0.13103819 2.3436058e-38
1 0.5102272 -0.12942736 2.3436058e-38
1 0.52796853 -0.13020639 2.3436058e-38
1 0.55077052 -0.1299603 2.3436058e-38
1 0.57015198 -0.13087018 2.3436058e-38
1 0.5874514 -0.1319121 2.3436058e-38
1 0.6081239 -0.12848905 2.3436058e-38
1 0.63074255 -0.13302465 2.3436058e-38
1 0.64466447 -0.12323459 2.3436058e-38
1 0.66947591 -0.13150926 2.3436058e-38
1 0.68799412 -0.12927172 2.3436058e-38
1 0.71142727 -0.12854452 2.3436058e-38
1 0.72875297 -0.13054888 2.3436058e-38
1 0.74911255 -0.13053887 2.3436058e-38
1 0.76745963 -0.12800203 2.3436058e-38
1 0.78982317 -0.12588352 2.3436058e-38
1 0.81191593 -0.13136567 2.3436058e-38
1 0.83297068 -0.13125104 2.3436058e-38
1 0.84755915 -0.12718453 2.3436058e-38
1 0.8709206 -0.13013326 2.3436058e-38
1 0.88841963 -0.13047294 2.3436058e-38
1 0.90893596 -0.12997596 2.3436058e-38
1 0.92880929 -0.12835655 2.3436058e-38
1 0.95347941 -0.12979192 2.3436058e-38
1 0.97332972 -0.13186327 2.3436058e-38
1 0.98828608 -0.13180506 2.3436058e-38
1 -0.99243611 -0.1140252 2.3436058e-38
1 -0.97207314 -0.10796833 2.3436058e-38
1 -0.95135659 -0.11049863 2.3436058e-38
1 -0.93110675 -0.11013599 2.3436058e-38
1 -0.90678 -0.11107743 2.3436058e-38
1 -0.88971412 -0.11048397 2.3436058e-38
1 -0.87063116 -0.11178915 2.3436058e-38
1 -0.85305703 -0.10854274 2.3436058e-38
1 -0.83016676 -0.11076479 2.3436058e-38
1 -0.80936205 -0.11242425 2.3436058e-38
1 -0.79217565 -0.11068928 2.3436058e-38
1 -0.76776713 -0.10925245 2.3436058e-38
1 -0.75000435 -0.10795444 2.3436058e-38
1 -0.72935241 -0.11073747 2.3436058e-38
1 -0.70896214 -0.10853829 2.3436058e-38
1 -0.68778586 -0.11041874 2.3436058e-38
1 -0.67185777 -0.11029726 2.3436058e-38
1 -0.65006769 -0.1120849 2.3436058e-38
1 -0.63236135 -0.10768795 2.3436058e-38
1 -0.61222422 -0.10836543 2.3436058e-38
1 -0.59216386 -0.10696221 2.3436058e-38
1 -0.57032061 -0.10914379 2.3436058e-38
1 -0.54841793 -0.10897412 2.3436058e-38
1 -0.52814448 -0.11011189 2.3436058e-38
1 -0.51252764 -0.11372071 2.3436058e-38
1 -0.48835748 -0.11075976 2.3436058e-38
1 -0.46981159 -0.1129237 2.3436058e-38
1 -0.45215204 -0.10923968 2.3436058e-38
1 -0.43213993 -0.10889284 2.3436058e-38
1 -0.40918568 -0.11202732 2.3436058e-38
1 -0.39004722 -0.10934903 2.3436058e-38
1 -0.36960736 -0.1071168 2.3436058e-38
1 -0.34739685 -0.10711636 2.3436058e-38
1 -0.33088812 -0.11109075 2.3436058e-38
1 -0.31485096 -0.11008618 2.3436058e-38
1 -0.29198083 -0.1105965 2.3436058e-38
1 -0.26998711 -0.11112446 2.3436058e-38
1 -0.2500872 -0.10950382 2.3436058e-38
1 -0.23013611 -0.11102062 2.3436058e-38
1 -0.21031094 -0.1119896 2.3436058e-38
1 -0.18861015 -0.10767767 2.3436058e-38
1 -0.16861425 -0.10935044 2.3436058e-38
1 -0.15055101 -0.1117301 2.3436058e-38
1 -0.13174868 -0.1070686 2.3436058e-38
1 -0.10939122 -0.11177398 2.3436058e-38
1 -0.088180825 -0.1075058 2.3436058e-38
1 -0.070313424 -0.11011357 2.3436058e-38
1 -0.051440243 -0.10958835 2.3436058e-38
1 -0.027987555 -0.11011403 2.3436058e-38
1 -0.0084880991 -0.11057127 2.3436058e-38
1 0.010421634 -0.11042845 2.3436058e-38
1 0.030118393 -0.10885217 2.3436058e-38
1 0.053274736 -0.10997674 2.3436058e-38
1 0.069312692 -0.10579145 2.3436058e-38
1 0.091243558 -0.10896096 2.3436058e-38
1 0.10748229 -0.11043453 2.3436058e-38
1 0.12893157 -0.11110479 2.3436058e-38
1 0.1525135 -0.11101203 2.3436058e-38
1 0.16760926 -0.10905428 2.3436058e-38
1 0.19110003 -0.10892091 2.3436058e-38
1 0.21142685 -0.10859016 2.3436058e-38
1 0.23115253 -0.1103644 2.3436058e-38
1 0.24865735 -0.11161458 2.3436058e-38
1 0.27001536 -0.10832202 2.3436058e-38
1 0.28888357 -0.1058432 2.3436058e-38
1 0.30649042 -0.10968542 2.3436058e-38
1 0.3285746 -0.10768446 2.3436058e-38
1 0.34851873 -0.10920747 2.3436058e-38
1 0.37157625 -0.11216259 2.3436058e-38
1 0.38939917 -0.11137438 2.3436058e-38
1 0.40534464 -0.10780117 2.3436058e-38
1 0.43000659 -0.10886928 2.3436058e-38
1 0.44505015 -0.11408386 2.3436058e-38
1 0.47062343 -0.11068167 2.3436058e-38
1 0.48942897 -0.11131423 2.3436058e-38
1 0.50920737 -0.10968712 2.3436058e-38
1 0.52837121 -0.10930379 2.3436058e-38
1 0.55044591 -0.11165031 2.3436058e-38
1 0.57012087 -0.10706367 2.3436058e-38
1 0.59088552 -0.10911623 2.3436058e-38
1 0.61195433 -0.11239661 2.3436058e-38
1 0.63348973 -0.10986377 2.3436058e-38
1 0.65040088 -0.11228859 2.3436058e-38
1 0.66900831 -0.11069661 2.3436058e-38
1 0.68790686 -0.10809648 2.3436058e-38
1 0.71152294 -0.10985792 2.3436058e-38
1 0.73222405 -0.11068557 2.3436058e-38
1 0.75055093 -0.11076584 2.3436058e-38
1 0.77316839 -0.10544395 2.3436058e-38
1 0.7897383 -0.10842136 2.3436058e-38
1 0.81217748 -0.10799956 2.3436058e-38
1 0.83268285 -0.11032271 2.3436058e-38
1 0.85262609 -0.11172303 2.3436058e-38
1 0.86784589 -0.10952092 2.3436058e-38
1 0.88902104 -0.10971536 2.3436058e-38
1 0.91099143 -0.10995603 2.3436058e-38
1 0.92713088 -0.11054455 2.3436058e-38
1 0.9507668 -0.10978847 2.3436058e-38
1 0.96849924 -0.11032745 2.3436058e-38
1 0.98936605 -0.11144146 2.3436058e-38
1 -0.99113989 -0.092238113 2.3436058e-38
1 -0.96584809 -0.094760276 2.3436058e-38
1 -0.94952977 -0.089535162 2.3436058e-38
1 -0.92996186 -0.090339132 2.3436058e-38
1 -0.90379989 -0.090013437 2.3436058e-38
1 -0.89067429 -0.091828391 2.3436058e-38
1 -0.86975455 -0.087941431 2.3436058e-38
1 -0.84772551 -0.089801468 2.3436058e-38
1 -0.82854033 -0.088675223 2.3436058e-38
1 -0.80889618 -0.090340279 2.3436058e-38
1 -0.7869544 -0.091742732 2.3436058e-38
1 -0.76628619 -0.090539329 2.3436058e-38
1 -0.75413144 -0.089556828 2.3436058e-38
1 -0.73318881 -0.090596244 2.3436058e-38
1 -0.71190751 -0.090179875 2.3436058e-38
1 -0.68786252 -0.091064394 2.3436058e-38
1 -0.67082161 -0.093429804 2.3436058e-38
1 -0.64601445 -0.091362953 2.3436058e-38
1 -0.63072747 -0.090796471 2.3436058e-38
1 -0.60910791 -0.092831396 2.3436058e-38
1 -0.59385794 -0.090727612 2.3436058e-38
1 -0.5694015 -0.093323335 2.3436058e-38
1 -0.5486511 -0.090131938 2.3436058e-38
1 -0.53169745 -0.087865651 2.3436058e-38
1 -0.50988775 -0.091914877 2.3436058e-38
1 -0.48873818 -0.090119362 2.3436058e-38
1 -0.46914455 -0.087682351 2.3436058e-38
1 -0.45227861 -0.090241671 2.3436058e-38
1 -0.42844918 -0.091115832 2.3436058e-38
1 -0.41099179 -0.087953448 2.3436058e-38
1 -0.38901898 -0.09083683 2.3436058e-38
1 -0.36827499 -0.08754915 2.3436058e-38
1 -0.35344818 -0.086697884 2.3436058e-38
1 -0.33102584 -0.088151537 2.3436058e-38
1 -0.31046185 -0.08927808 2.3436058e-38
1 -0.28957748 -0.093786143 2.3436058e-38
1 -0.27382788 -0.090880238 2.3436058e-38
1 -0.25241405 -0.087719262 2.3436058e-38
1 -0.23001572 -0.091439411 2.3436058e-38
1 -0.21008462 -0.092366613 2.3436058e-38
1 -0.18682609 -0.0917385 2.3436058e-38
1 -0.17153692 -0.08896637 2.3436058e-38
1 -0.14937687 -0.0917276 2.3436058e-38
1 -0.13049445 -0.092032515 2.3436058e-38
1 -0.10989269 -0.092144229 2.3436058e-38
1 -0.085690677 -0.087800942 2.3436058e-38
1 -0.070174694 -0.088667095 2.3436058e-38
1 -0.049545605 -0.08549007 2.3436058e-38
1 -0.029827371 -0.090332061 2.3436058e-38
1 -0.011602482 -0.091027103 2.3436058e-38
1 0.0098580364 -0.089475922 2.3436058e-38
1 0.027791739 -0.092946909 2.3436058e-38
1 0.050639868 -0.091999732 2.3436058e-38
1 0.069705807 -0.089605495 2.3436058e-38
1 0.092211485 -0.089292765 2.3436058e-38
1 0.10857932 -0.091290161 2.3436058e-38
1 0.13116349 -0.088530473 2.3436058e-38
1 0.15093309 -0.093619168 2.3436058e-38
1 0.17067802 -0.09281683 2.3436058e-38
1 0.18713181 -0.087463163 2.3436058e-38
1 0.20862915 -0.091102675 2.3436058e-38
1 0.22681621 -0.087814718 2.3436058e-38
1 0.25134462 -0.090315163 2.3436058e-38
1 0.27185303 -0.089470625 2.3436058e-38
1 0.29118362 -0.088177256 2.3436058e-38
1 0.31104246 -0.094367102 2.3436058e-38
1 0.3308402 -0.08979889 2.3436058e-38
1 0.35132027 -0.094395541 2.3436058e-38
1 0.36810517 -0.09041176 2.3436058e-38
1 0.38899595 -0.091317728 2.3436058e-38
1 0.41196436 -0.086661339 2.3436058e-38
1 0.43062574 -0.089949138 2.3436058e-38
1 0.44706187 -0.092538074 2.3436058e-38
1 0.47027031 -0.090089761 2.3436058e-38
1 0.48912901 -0.091016501 2.3436058e-38
1 0.50713843 -0.08770752 2.3436058e-38
1 0.53043121 -0.090133362 2.3436058e-38
1 0.54663938 -0.092486382 2.3436058e-38
1 0.57231402 -0.09388797 2.3436058e-38
1 0.59066391 -0.090243921 2.3436058e-38
1 0.6091907 -0.089114808 2.3436058e-38
1 0.6299603 -0.09224765 2.3436058e-38
1 0.64890575 -0.090526283 2.3436058e-38
1 0.67049217 -0.089960501 2.3436058e-38
1 0.69032061 -0.08975108 2.3436058e-38
1 0.71314716 -0.091121249 2.3436058e-38
1 0.7298376 -0.091002822 2.3436058e-38
1 0.75147671 -0.089300871 2.3436058e-38
1 0.76911175 -0.086290121 2.3436058e-38
1 0.79078525 -0.088290058 2.3436058e-38
1 0.81045771 -0.08890184 2.3436058e-38
1 0.82907552 -0.092422284 2.3436058e-38
1 0.85299587 -0.090835668 2.3436058e-38
1 0.86886179 -0.090790212 2.3436058e-38
1 0.88743138 -0.090522215 2.3436058e-38
1 0.91490102 -0.086867973 2.3436058e-38
1 0.92861742 -0.091006517 2.3436058e-38
1 0.95249349 -0.089068092 2.3436058e-38
1 0.9686588 -0.088851452 2.3436058e-38
1 0.98707706 -0.089607671 2.3436058e-38
1 -0.9933511 -0.066757202 2.3436058e-38
1 -0.9731636 -0.069592215 2.3436058e-38
1 -0.94930911 -0.071931362 2.3436058e-38
1 -0.92713928 -0.071173668 2.3436058e-38
1 -0.9094913 -0.071542658 2.3436058e-38
1 -0.89396775 -0.068275131 2.3436058e-38
1 -0.87222624 -0.070311144 2.3436058e-38
1 -0.84976095 -0.06760446 2.3436058e-38
1 -0.83190548 -0.069080971 2.3436058e-38
1 -0.81062031 -0.069965243 2.3436058e-38
1 -0.78846592 -0.066464975 2.3436058e-38
1 -0.76849639 -0.071877629 2.3436058e-38
1 -0.75246251 -0.070927501 2.3436058e-38
1 -0.73047119 -0.069740988 2.3436058e-38
1 -0.71155161 -0.07094945 2.3436058e-38
1 -0.69216698 -0.071450233 2.3436058e-38
1 -0.67104846 -0.067600682 2.3436058e-38
1 -0.65658456 -0.069777682 2.3436058e-38
1 -0.62739563 -0.069232687 2.3436058e-38
1 -0.61526883 -0.068575978 2.3436058e-38
1 -0.59115738 -0.071152762 2.3436058e-38
1 -0.57119727 -0.06972599 2.3436058e-38
1 -0.54671037 -0.070443451 2.3436058e-38
1 -0.52983707 -0.071613193 2.3436058e-38
1 -0.51021713 -0.06708651 2.3436058e-38
1 -0.49065828 -0.070299529 2.3436058e-38
1 -0.47091296 -0.071489267 2.3436058e-38
1 -0.44995958 -0.069437951 2.3436058e-38
1 -0.43027487 -0.071023315 2.3436058e-38
1 -0.41055027 -0.068356551 2.3436058e-38
1 -0.38946739 -0.069293402 2.3436058e-38
