# .PCD v0.7 - Point Cloud Data file format
VERSION 0.7
FIELDS x y z rgb
SIZE 4 4 4 4
TYPE F F F F
COUNT 1 1 1 1
WIDTH 82
HEIGHT 1
VIEWPOINT 0 0 0 1 0 0 0
POINTS 82
DATA ascii
1.0001897 -0.15071127 -0.98901725 2.3436058e-38
1.0001901 -0.21133594 -0.99121034 2.3436058e-38
1.0001893 -0.22839582 -0.98831367 2.3436058e-38
1.0001891 -0.43340597 -0.98997551 2.3436058e-38
1.0001891 -0.44779867 -0.99046558 2.3436058e-38
1.0001874 -0.94954395 -0.99006051 2.3436058e-38
1.0001881 -0.99137676 -0.99278432 2.3436058e-38
0.99961025 -0.99229872 1.0000033 2.3509598e-38
0.9996103 -0.97028041 1.0000035 2.3509598e-38
0.99961913 0.99142516 0.99133343 2.3436058e-38
0.9996258 0.99237233 0.96833616 2.3436058e-38
0.99965346 0.99079061 0.87288868 2.3436058e-38
0.9996593 0.99020666 0.85270929 2.3436058e-38
0.99979293 0.98815513 0.39159292 2.3436058e-38
0.99979967 0.99401808 0.36887479 2.3436058e-38
0.99984622 0.98955619 0.20817821 2.3436058e-38
0.99985743 0.99159855 0.16920359 2.3436058e-38
1.0001585 0.9913438 -0.86897653 2.3436058e-38
1.000169 0.99215049 -0.90527499 2.3436058e-38
1.0001931 0.97042876 -0.98866552 2.3436058e-38
1.0001928 0.95082313 -0.9875142 2.3436058e-38
1.0001935 0.79208994 -0.99160451 2.3436058e-38
1.0001929 0.76920664 -0.99016821 2.3436058e-38
1.0001929 0.75068355 -0.9900375 2.3436058e-38
1.0001895 -0.12734193 -0.98826641 2.3436058e-38
0.90881163 0.98841625 1 2.3509598e-38
0.97079754 0.98776859 1 2.3509598e-38
0.96964693 0.96829939 1 2.3509598e-38
0.97354358 0.80934066 1 2.3509598e-38
0.97122383 0.77077711 1 2.3509598e-38
0.96927619 0.52994609 1 2.3509598e-38
0.97091812 0.49183264 1 2.3509598e-38
0.97118205 0.28921375 1 2.3509598e-38
0.97253704 0.27145296 1 2.3509598e-38
0.96770293 0.11014598 1 2.3509598e-38
0.97107524 0.087233946 1 2.3509598e-38
0.97208369 0.01141839 1 2.3509598e-38
0.970891 -0.0088129044 1 2.3509598e-38
0.96851158 -0.26826167 1 2.3509598e-38
0.97110826 -0.28829637 1 2.3509598e-38
0.96908104 -0.53004408 1 2.3509598e-38
0.97219419 -0.55180627 1 2.3509598e-38
0.97343111 -0.68747604 1 2.3509598e-38
0.97463304 -0.73280215 1 2.3509598e-38
0.94719076 -0.99309939 1 2.3509598e-38
0.92914194 -0.99306786 1 2.3509598e-38
0.72986287 -0.98852998 1 2.3509598e-38
0.70905054 -0.99230611 1 2.3509598e-38
0.57188606 -0.98924911 1 2.3509598e-38
0.54689598 -0.98886061 1 2.3509598e-38
0.29078048 -0.99080724 1 2.3509598e-38
0.26914892 -0.98789191 1 2.3509598e-38
0.050697915 -0.99206841 1 2.3509598e-38
0.032092869 -0.98863488 1 2.3509598e-38
-0.090675354 -0.98917019 1 2.3509598e-38
-0.10971578 -0.98828763 1 2.3509598e-38
-0.88927364 -0.99015391 1 2.3509598e-38
-0.90949357 -0.98753864 1 2.3509598e-38
-0.98929656 -0.98856276 1 2.3509598e-38
-0.99034053 -0.96952373 1 2.3509598e-38
-0.99442428 -0.811795 1 2.3509598e-38
-0.99051774 -0.77177292 1 2.3509598e-38
-0.98906082 -0.31294283 1 2.3509598e-38
-0.98938775 -0.28971356 1 2.3509598e-38
-0.98771274 0.83036953 1 2.3509598e-38
-0.99236947 0.84880495 1 2.3509598e-38
-0.99211437 0.90806204 1 2.3509598e-38
-0.98780477 0.93001437 1 2.3509598e-38
-0.98847044 0.98959363 1 2.3509598e-38
-0.97197032 0.98853457 1 2.3509598e-38
-0.048968196 0.99161029 1 2.3509598e-38
-0.029911267 0.98872977 1 2.3509598e-38
0.10908818 0.99131095 1 2.3509598e-38
0.13090372 0.98814118 1 2.3509598e-38
0.23086682 0.98991102 1 2.3509598e-38
0.25062847 0.98724914 1 2.3509598e-38
0.47045815 0.99217969 1 2.3509598e-38
0.48597285 0.98959297 1 2.3509598e-38
0.69366539 0.98600197 1 2.3509598e-38
0.71144104 0.98776025 1 2.3509598e-38
0.73277736 0.98774117 1 2.3509598e-38
0.89077902 0.98962134 1 2.3509598e-38
