# .PCD v0.7 - Point Cloud Data file format
VERSION 0.7
FIELDS x y z
SIZE 4 4 4
TYPE F F F
COUNT 1 1 1
WIDTH 763
HEIGHT 1
VIEWPOINT 0 0 0 1 0 0 0
POINTS 763
DATA ascii
-0.82989973 -0.99366748 1.0001413
-0.87087381 -0.99360412 1.0001532
-0.88912934 -0.98903549 1.0001585
-0.90869033 -0.99138129 1.0001642
-0.93003881 -0.99010813 1.0001705
-0.95183098 -0.9884361 1.0001768
-0.97136098 -0.99137539 1.0001825
-0.98940486 -0.98943943 1.0001878
-0.99141312 -0.96833861 1.0001885
-0.98868656 -0.94990891 1.0001876
-0.98869652 -0.92925858 1.0001878
-0.99361825 -0.89511073 1.0001893
-0.99013394 -0.87309808 1.0001884
-0.99155414 -0.84996521 1.0001888
-0.98805761 -0.82918829 1.000188
-0.98951977 -0.81056732 1.0001885
-0.98953134 -0.79250497 1.0001885
-0.98827565 -0.77133834 1.0001882
-0.9903394 -0.75265026 1.0001888
-0.99137115 -0.7318821 1.0001893
-0.98918271 -0.71387702 1.0001887
-0.98996681 -0.6919626 1.0001889
-0.99328482 -0.67289889 1.00019
-0.98937911 -0.64620757 1.0001889
-0.98818612 -0.62903315 1.0001887
-0.98537678 -0.6099391 1.000188
-0.98963064 -0.59178221 1.0001893
-0.99312687 -0.56662512 1.0001904
-0.99226105 -0.55046362 1.0001901
-0.98823941 -0.52615076 1.0001891
-0.99111378 -0.50969416 1.00019
-0.99226654 -0.49049115 1.0001904
-0.99114347 -0.470514 1.0001901
-0.98822224 -0.45294765 1.0001893
-0.99126709 -0.42763409 1.0001904
-0.9888832 -0.40910068 1.0001897
-0.9895246 -0.39016801 1.0001899
-0.98880863 -0.37202466 1.0001898
-0.98981297 -0.34937072 1.0001901
-0.9881556 -0.33094129 1.0001898
-0.98959059 -0.30766487 1.0001903
-0.99241042 -0.28985491 1.0001912
-0.99121928 -0.26675028 1.0001909
-0.98996788 -0.24825735 1.0001906
-0.98788285 -0.22716755 1.00019
-0.98921973 -0.2114117 1.0001905
-0.99151862 -0.1886142 1.0001912
-0.99019563 -0.17111659 1.000191
-0.99173546 -0.14583284 1.0001915
-0.98981255 -0.12810396 1.000191
-0.98926765 -0.11053177 1.0001909
-0.99171662 -0.09027499 1.0001917
-0.99432409 -0.070883632 1.0001925
-0.99175823 -0.050866902 1.0001918
-0.99020302 -0.028975274 1.0001915
-0.98835713 -0.0094381077 1.000191
-0.99155581 0.014063739 1.000192
-0.99111497 0.030494882 1.0001919
-0.98938119 0.047877047 1.0001915
-0.99003839 0.071050823 1.0001918
-0.99249065 0.0871199 1.0001925
-0.98999608 0.10984676 1.0001919
-0.99035668 0.13618572 1.000192
-0.98912072 0.15301743 1.0001918
-0.99172628 0.17043734 1.0001926
-0.98765206 0.19239317 1.0001916
-0.98770082 0.20846882 1.0001916
-0.99100578 0.23281318 1.0001926
-0.99056625 0.25095052 1.0001925
-0.98902023 0.27168906 1.0001922
-0.98722136 0.29292977 1.0001918
-0.98969448 0.31320754 1.0001925
-0.99027538 0.32858166 1.0001928
-0.99059093 0.35008654 1.000193
-0.99220383 0.37277013 1.0001935
-0.98874587 0.3894816 1.0001925
-0.9895969 0.4083758 1.0001929
-0.99141479 0.43004203 1.0001935
-0.9898628 0.4483676 1.0001931
-0.98907018 0.47143352 1.000193
-0.99325144 0.48945197 1.0001942
-0.9953388 0.52875108 1.000195
-0.99097681 0.54974455 1.0001938
-0.99176693 0.57213783 1.0001941
-0.98975396 0.58762735 1.0001936
-0.98930174 0.60826284 1.0001935
-0.99311388 0.62668514 1.0001947
-0.98899442 0.65184575 1.0001936
-0.98852956 0.66991609 1.0001935
-0.98780388 0.68926859 1.0001934
-0.99107683 0.71276641 1.0001944
-0.98981261 0.72857153 1.0001941
-0.98897213 0.74997866 1.000194
-0.99081242 0.77165836 1.0001945
-0.98946452 0.79281759 1.0001942
-0.99169528 0.81107473 1.0001949
-0.99109006 0.82886308 1.0001948
-0.98944151 0.85044807 1.0001944
-0.98707092 0.88459736 1.0001938
-0.98645651 0.90892684 1.0001937
-0.99062014 0.92949015 1.000195
-0.9872067 0.94795132 1.0001941
-0.98715937 0.96703488 1.0001942
-0.98943377 0.99271148 1.0001949
-0.96855384 0.99066973 1.0001888
-0.94982028 0.98994488 1.0001833
-0.93139708 0.98764801 1.000178
-0.906955 0.98797631 1.0001708
-0.8874588 0.99136573 1.0001652
-0.87121671 0.98734492 1.0001605
-0.85183895 0.98757482 1.0001547
-0.83025861 0.99024308 1.0001485
-0.81038737 0.98671722 1.0001427
-0.78785372 0.98839206 1.0001361
-0.76970679 0.98826909 1.0001308
-0.75170147 0.98766232 1.0001255
-0.72953594 0.99117887 1.0001191
-0.70658094 0.98955959 1.0001124
-0.68993366 0.99049413 1.0001075
-0.67377585 0.99013072 1.0001029
-0.65467411 0.98573184 1.0000973
-0.63106912 0.98698711 1.0000904
-0.61005253 0.99203068 1.0000843
-0.59274954 0.99227387 1.0000793
-0.57125229 0.98985898 1.000073
-0.54726195 0.99111968 1.0000659
-0.53073037 0.99185944 1.0000612
-0.51273268 0.99071312 1.0000559
-0.49154168 0.99129766 1.0000497
-0.47172111 0.98961115 1.0000439
-0.45071918 0.98953676 1.0000378
-0.43037173 0.98992342 1.0000318
-0.40955353 0.98735237 1.0000257
-0.38831455 0.99287844 1.0000196
-0.36725691 0.98806065 1.0000135
-0.35022417 0.98896468 1.0000085
-0.33034754 0.99324417 1.0000027
-0.31501579 0.99022186 0.99999821
-0.29140642 0.99310482 0.99999136
-0.27236468 0.99156761 0.99998575
-0.24894208 0.99054372 0.99997896
-0.22601932 0.98907906 0.99997222
-0.20966613 0.99041623 0.99996746
-0.19276583 0.99033302 0.99996257
-0.16795965 0.9908545 0.9999553
-0.14848542 0.99201196 0.99994963
-0.12761244 0.99120587 0.99994355
-0.11071816 0.98929352 0.99993861
-0.090373248 0.9900915 0.99993271
-0.069620684 0.99196321 0.99992663
-0.052193761 0.99002087 0.99992156
-0.030822344 0.99366105 0.9999153
-0.010117372 0.99004418 0.99990928
0.010657544 0.99205959 0.9999032
0.032713108 0.99009228 0.99989676
0.050016958 0.98910373 0.99989176
0.072110072 0.98667848 0.99988526
0.093780294 0.98768407 0.99987894
0.1104196 0.99042958 0.99987411
0.13047653 0.99116105 0.99986827
0.14671484 0.99146223 0.99986356
0.16796117 0.9930988 0.99985737
0.1859858 0.9901244 0.99985206
0.21148038 0.99187934 0.99984467
0.22990854 0.99001127 0.99983925
0.25198865 0.99156338 0.99983281
0.26974162 0.99169016 0.99982762
0.29159549 0.98852748 0.99982125
0.30937079 0.99062926 0.99981612
0.33001962 0.98864579 0.99981004
0.3509697 0.98894489 0.99980396
0.36949584 0.98928881 0.99979854
0.39042073 0.98970693 0.99979246
0.40706241 0.98730612 0.99978757
0.4314203 0.99329531 0.99978048
0.44804749 0.98787421 0.99977565
0.47032899 0.9896456 0.99976915
0.48938835 0.9895032 0.99976361
0.50820547 0.9883371 0.99975806
0.527246 0.99318576 0.99975252
0.54984206 0.9922474 0.99974597
0.5659973 0.98909128 0.99974126
0.59132987 0.98924083 0.99973387
0.61082405 0.99481869 0.9997282
0.62976575 0.99142075 0.99972266
0.64882463 0.990381 0.99971706
0.66997242 0.98826522 0.99971092
0.68781626 0.98655891 0.99970567
0.71138132 0.99164176 0.99969882
0.73254079 0.98926944 0.99969268
0.74936217 0.98836744 0.99968773
0.76986057 0.99114168 0.99968177
0.78988713 0.98804075 0.99967593
0.80887949 0.99264467 0.99967039
0.83062601 0.98927063 0.99966407
0.85005403 0.98957729 0.99965841
0.87055522 0.99024582 0.99965239
0.89069599 0.98583704 0.99964648
0.90873641 0.98749876 0.99964124
0.92865741 0.99201888 0.99963546
0.9466207 0.99054718 0.99963021
0.97251999 0.98937821 0.99962264
0.98882598 0.99184817 0.99961793
1.0000031 0.98880684 0.99961466
1.0000021 0.96806532 0.99961454
1.0000032 0.94718939 0.99961448
1.0000026 0.92898476 0.99961442
1.0000026 0.91172111 0.99961436
1.000003 0.89332116 0.9996143
1.0000026 0.87029421 0.99961424
1.0000029 0.85163403 0.99961412
1.000003 0.83145344 0.99961406
1.0000029 0.81146741 0.999614
1.0000042 0.79489696 0.99961394
1.0000024 0.76832426 0.99961382
1.0000029 0.75126797 0.99961376
1.0000025 0.73184526 0.9996137
1.0000027 0.70954502 0.99961364
1.0000024 0.68658894 0.99961352
1.0000024 0.67072839 0.99961346
1.0000024 0.65067953 0.9996134
1.0000036 0.63090479 0.99961334
1.0000023 0.6101079 0.99961329
1.0000027 0.58989173 0.99961317
1.0000024 0.56886518 0.99961311
1.0000025 0.54959959 0.99961305
1.0000025 0.52583605 0.99961299
1.000003 0.51117867 0.99961293
1.0000029 0.48978078 0.99961281
1.0000029 0.470936 0.99961275
1.0000027 0.45126814 0.99961269
1.000003 0.43185931 0.99961263
1.0000032 0.40868181 0.99961251
1.000003 0.3887943 0.99961245
1.0000027 0.36903736 0.99961239
1.0000036 0.35013953 0.99961233
1.0000023 0.32869327 0.99961227
1.0000024 0.31048658 0.99961221
1.0000046 0.29036087 0.99961209
1.0000018 0.27046821 0.99961203
1.000003 0.25214788 0.99961197
1.0000018 0.22964688 0.99961191
1.0000025 0.20955512 0.99961179
1.0000024 0.19156708 0.99961174
1.0000036 0.16970603 0.99961168
1.0000031 0.15317753 0.99961162
1.0000027 0.12991643 0.99961156
1.0000026 0.10879406 0.99961144
1.0000023 0.089614503 0.99961138
1.0000036 0.07174281 0.99961132
1.000003 0.049470436 0.99961126
1.0000025 0.031456158 0.9996112
1.0000017 0.0090068607 0.99961108
1.0000026 -0.010372274 0.99961102
1.0000038 -0.028390836 0.99961096
1.0000029 -0.047908872 0.9996109
1.0000026 -0.070624545 0.99961078
1.0000031 -0.088503592 0.99961072
1.0000033 -0.11025742 0.99961066
1.0000024 -0.12978968 0.9996106
1.0000033 -0.15187006 0.99961048
1.0000017 -0.17106535 0.99961042
1.000003 -0.188494 0.99961036
1.0000019 -0.2149308 0.9996103
1.0000033 -0.22942077 0.99961025
1.0000035 -0.2495999 0.99961013
1.0000024 -0.2704263 0.99961007
1.0000032 -0.28749591 0.99961001
1.000003 -0.30876321 0.99960995
1.0000025 -0.33023643 0.99960989
1.0000021 -0.34630194 0.99960983
1.0000031 -0.37156227 0.99960971
1.0000036 -0.39189753 0.99960965
1.0000031 -0.40940729 0.99960959
1.0000038 -0.4291054 0.99960953
1.0000033 -0.4486748 0.99960941
1.000003 -0.47135848 0.99960935
1.0000033 -0.49100035 0.99960929
1.0000024 -0.50634855 0.99960923
1.0000024 -0.52725697 0.99960917
1.0000024 -0.55145705 0.99960905
1.0000031 -0.56898814 0.99960899
1.0000026 -0.59021944 0.99960893
1.0000025 -0.61198199 0.99960881
1.0000025 -0.63145483 0.99960876
1.0000036 -0.6486221 0.9996087
1.0000027 -0.66904694 0.99960864
1.0000037 -0.68957424 0.99960858
1.0000024 -0.71043497 0.99960852
1.0000025 -0.72866684 0.9996084
1.0000029 -0.7511366 0.99960834
1.0000035 -0.77047032 0.99960828
1.0000031 -0.79087979 0.99960822
1.0000019 -0.81226772 0.9996081
1.0000039 -0.83151305 0.99960804
1.0000041 -0.84603816 0.99960798
1.0000032 -0.86925095 0.99960792
1.0000031 -0.88859248 0.99960786
1.0000035 -0.90975064 0.99960774
1.0000018 -0.93354666 0.99960768
1.0000019 -0.95212638 0.99960762
1.0000031 -0.96853447 0.99960756
1.000003 -0.98939294 0.9996075
0.98751438 -0.99025077 0.99961114
0.97125566 -0.99320334 0.99961585
0.94786322 -0.98912829 0.9996227
0.92742264 -0.99155915 0.99962866
0.90925711 -0.98899007 0.99963397
0.89235085 -0.99117023 0.99963886
0.87000644 -0.99023819 0.99964541
0.84861004 -0.98810816 0.99965161
0.82813781 -0.98828781 0.99965763
0.80730814 -0.99534827 0.99966365
0.77240729 -0.99436605 0.99967384
0.74720538 -0.98992223 0.99968123
0.73163897 -0.99080497 0.99968576
0.70998973 -0.99205077 0.99969208
0.67081779 -0.99039191 0.99970347
0.64785677 -0.98861557 0.9997102
0.63098294 -0.99012566 0.99971509
0.61157221 -0.9904139 0.99972075
0.58953035 -0.98874485 0.99972719
0.56818843 -0.98553342 0.99973345
0.54756093 -0.99010551 0.99973947
0.52911109 -0.9893164 0.99974483
0.5084877 -0.99293882 0.99975085
0.49194252 -0.99118221 0.99975568
0.47003594 -0.98856664 0.99976206
0.44959146 -0.99183959 0.99976802
0.4317902 -0.99132311 0.9997732
0.41165388 -0.98849177 0.99977911
0.38998812 -0.99006385 0.99978542
0.37107274 -0.99238366 0.99979091
0.34732205 -0.99165618 0.99979782
0.33083063 -0.98801148 0.99980265
0.31039506 -0.98924249 0.99980861
0.28990841 -0.98743397 0.99981463
0.26664376 -0.9891718 0.99982136
0.25227267 -0.99060977 0.9998256
0.23015365 -0.98875862 0.99983203
0.21115223 -0.99074811 0.99983758
0.19138725 -0.99190378 0.9998433
0.17139609 -0.98968726 0.99984914
0.14974079 -0.99122387 0.99985546
0.13126273 -0.99076176 0.99986088
0.11042191 -0.98950261 0.99986696
0.089000866 -0.9889555 0.99987322
0.069762193 -0.98799294 0.99987882
0.048417334 -0.98856658 0.99988502
0.029624686 -0.99149454 0.99989051
0.0064000194 -0.98978132 0.9998973
-0.0087364353 -0.99188614 0.99990171
-0.029149193 -0.9917832 0.99990767
-0.048195805 -0.99032706 0.99991322
-0.069902241 -0.994304 0.99991953
-0.087289795 -0.9902178 0.9999246
-0.11113052 -0.98833174 0.99993157
-0.13516766 -0.99224395 0.99993855
-0.15112573 -0.99035054 0.99994326
-0.17485854 -0.98887932 0.99995017
-0.19192284 -0.98986369 0.99995512
-0.21257116 -0.9894585 0.99996114
-0.23070659 -0.98722076 0.99996644
-0.25064507 -0.99020606 0.99997228
-0.26981989 -0.98721468 0.99997789
-0.29146856 -0.98953331 0.99998415
-0.30640295 -0.98737389 0.99998856
-0.32832813 -0.99038428 0.99999493
-0.35281998 -0.99154305 1.000002
-0.36948505 -0.99416971 1.0000069
-0.39016283 -0.99211246 1.000013
-0.41289717 -0.99104464 1.0000196
-0.43050075 -0.98960596 1.0000247
-0.45246559 -0.99108738 1.0000311
-0.47104788 -0.99179453 1.0000366
-0.49294466 -0.98831069 1.0000429
-0.5117377 -0.98733467 1.0000484
-0.52787918 -0.99002361 1.0000532
-0.55057955 -0.99153161 1.0000597
-0.57324451 -0.98842305 1.0000664
-0.58976936 -0.99027419 1.0000712
-0.61189353 -0.98947638 1.0000776
-0.62999934 -0.98950458 1.000083
-0.65048516 -0.98757488 1.0000889
-0.66956699 -0.99047852 1.0000944
-0.69055015 -0.99084359 1.0001006
-0.70615602 -0.98939115 1.0001051
-0.72789627 -0.98877436 1.0001115
-0.74972051 -0.9893018 1.0001179
-0.77134717 -0.9967885 1.0001241
-0.81107301 -0.98919582 1.0001358
1 0.98984319 -0.56865394
1 0.99225736 -0.5518679
1 0.99259835 -0.52753979
1 0.99126691 -0.50990665
1 0.99139196 -0.49104911
1 0.98893124 -0.46910802
1 0.99059337 -0.45120716
1 0.98904145 -0.43081719
1 0.99021548 -0.41029242
1 0.98933619 -0.39040163
1 0.99164271 -0.37064108
1 0.98880625 -0.34882578
1 0.99040145 -0.33205223
1 0.99178261 -0.31139109
1 0.992194 -0.29069993
1 0.99006057 -0.26847011
1 0.98888898 -0.250873
1 0.98953354 -0.23131834
1 0.99274063 -0.20686355
1 0.98972589 -0.1910305
1 0.99058926 -0.16624832
1 0.98921269 -0.15264013
1 0.99297076 -0.12673062
1 0.9933399 -0.11181098
1 0.9939208 -0.086881995
1 0.99277854 -0.051296897
1 0.98784411 -0.029065065
1 0.987535 -0.012817066
1 0.99105883 0.0086106304
1 0.99062508 0.025068672
1 0.98976821 0.048625164
1 0.9905647 0.070592284
1 0.99028808 0.09125948
1 0.9893297 0.10921969
1 0.98850071 0.13178831
1 0.98978502 0.15004654
1 0.99028087 0.16982429
1 0.98873627 0.18848911
1 0.98866653 0.20850262
1 0.99101114 0.22977269
1 0.98974574 0.24975519
1 0.98803318 0.26724571
1 0.98670816 0.29246673
1 0.99198866 0.30916017
1 0.98917526 0.33024073
1 0.98814273 0.3487803
1 0.99162281 0.37184334
1 0.99271637 0.38746917
1 0.99346203 0.41152903
1 0.99239337 0.42814898
1 0.98855746 0.4482854
1 0.99172056 0.4690946
1 0.98883426 0.48738492
1 0.98822683 0.50859094
1 0.98778838 0.53218853
1 0.99343818 0.5515607
1 0.98998725 0.57474852
1 0.98831433 0.58969253
1 0.99049968 0.60933429
1 0.98775148 0.6318692
1 0.99204123 0.65238285
1 0.99048412 0.68814176
1 0.98758179 0.71027189
1 0.99274272 0.72990876
1 0.98664939 0.74890667
1 0.9883548 0.76885849
1 0.99254221 0.79302847
1 0.99111539 0.8069784
1 0.98983312 0.82928705
1 0.99097967 0.84931701
1 0.99098396 0.86772269
1 0.98865688 0.88637882
1 0.99238122 0.90942246
1 0.98911786 0.93021828
1 0.99088204 0.95132995
1 0.99251682 0.96575344
1 0.96689844 0.96895814
1 0.94628376 0.97101533
1 0.92783558 0.96804476
1 0.90779674 0.97184128
1 0.8892293 0.96996897
1 0.86894929 0.97197342
1 0.85259742 0.96984786
1 0.82905835 0.97074872
1 0.80982649 0.96640366
1 0.78931433 0.96914524
1 0.76667935 0.96969223
1 0.74979687 0.97224891
1 0.73182285 0.97220057
1 0.70878851 0.97213936
1 0.68902963 0.97022033
1 0.66791695 0.97026122
1 0.65291822 0.96843791
1 0.63306266 0.96920967
1 0.61092246 0.97201121
1 0.58720273 0.9697364
1 0.57059747 0.96894592
1 0.54869074 0.96971142
1 0.53260505 0.97371686
1 0.50810045 0.96930629
1 0.4915483 0.96938032
1 0.47428766 0.97324783
1 0.44804341 0.96854335
1 0.43273216 0.96874201
1 0.38992336 0.97211128
1 0.37075984 0.96969259
1 0.35416242 0.97214341
1 0.32881987 0.96969813
1 0.306775 0.9731378
1 0.27009588 0.97126663
1 0.25087109 0.96839827
1 0.22976573 0.97209167
1 0.21503675 0.97196198
1 0.19098133 0.96957725
1 0.16976787 0.9687658
1 0.15248926 0.97267443
1 0.12783436 0.96968699
1 0.11035178 0.96920586
1 0.088419653 0.97255832
1 0.049580943 0.97204167
1 0.029014058 0.97239834
1 -0.0075695785 0.97024071
1 -0.032433178 0.96944445
1 -0.052920647 0.97008204
1 -0.072863579 0.96809727
1 -0.088866793 0.96803421
1 -0.11197979 0.96768188
1 -0.12816162 0.97017646
1 -0.14798987 0.96790713
1 -0.16958195 0.96806204
1 -0.18877962 0.97158325
1 -0.20955926 0.97079319
1 -0.23081361 0.96862012
1 -0.25007731 0.97220403
1 -0.27008131 0.96799457
1 -0.29021096 0.97127962
1 -0.30926803 0.96997225
1 -0.325688 0.96851903
1 -0.34931031 0.97072071
1 -0.36881047 0.96830201
1 -0.38715726 0.97121733
1 -0.41074601 0.97007841
1 -0.43123302 0.96988404
1 -0.45252335 0.97299844
1 -0.47205594 0.96969068
1 -0.48596251 0.96720797
1 -0.51255119 0.96896601
1 -0.5327304 0.96920121
1 -0.54591376 0.97088736
1 -0.57096118 0.97118872
1 -0.59044498 0.97069472
1 -0.61140311 0.96918684
1 -0.62899393 0.97088522
1 -0.6519329 0.97409195
1 -0.66896367 0.96941906
1 -0.68918484 0.96784675
1 -0.71165663 0.96720934
1 -0.72949237 0.97161406
1 -0.75173968 0.96951836
1 -0.76755917 0.96948355
1 -0.79441285 0.9684785
1 -0.81003177 0.97112191
1 -0.82976013 0.96884817
1 -0.85109437 0.9717567
1 -0.86733097 0.97154385
1 -0.8906191 0.97232193
1 -0.92784536 0.97072923
1 -0.95030206 0.9721663
1 -0.97097844 0.97211283
1 -0.99062139 0.97164345
1 -0.99021161 0.95057303
1 -0.98933184 0.93305951
1 -0.99144661 0.90970635
1 -0.9873991 0.89053166
1 -0.98907113 0.87185705
1 -0.98859823 0.8533985
1 -0.99034369 0.83292598
1 -0.98797703 0.81187242
1 -0.98949814 0.79472291
1 -0.99382305 0.76837873
1 -0.99072587 0.74815577
1 -0.98911375 0.73038137
1 -0.98998201 0.70916575
1 -0.98750943 0.68973422
1 -0.99097741 0.67102164
1 -0.98905367 0.65071577
1 -0.99305642 0.63003933
1 -0.98787755 0.60876262
1 -0.99025321 0.58948058
1 -0.98847878 0.56746447
1 -0.9919579 0.54970831
1 -0.99196672 0.53176188
1 -0.98808384 0.51105052
1 -0.99191004 0.48952076
1 -0.98742312 0.4705998
1 -0.9884311 0.45073876
1 -0.99056882 0.43064117
1 -0.99078059 0.41304135
1 -0.99039358 0.39105135
1 -0.98814172 0.36716974
1 -0.987638 0.35220334
1 -0.98899049 0.32797265
1 -0.99034518 0.30773336
1 -0.99028188 0.29001299
1 -0.98875701 0.27199331
1 -0.99248546 0.2493674
1 -0.98929697 0.22811025
1 -0.98981231 0.20969042
1 -0.98799849 0.19445214
1 -0.99223441 0.16997296
1 -0.98866075 0.15240841
1 -0.98715174 0.13088828
1 -0.9911654 0.11101259
1 -0.9903416 0.08880578
1 -0.98921138 0.066692926
1 -0.9897297 0.049180798
1 -0.9928019 0.0093878098
1 -0.989245 -0.011826108
1 -0.99055427 -0.028235151
1 -0.98969918 -0.050156169
1 -0.98721045 -0.071392618
1 -0.99010539 -0.088739775
1 -0.99226409 -0.10753584
1 -0.98896533 -0.12964971
1 -0.98817176 -0.14933473
1 -0.9891783 -0.16908333
1 -0.98878127 -0.19176827
1 -0.98895919 -0.20992331
1 -0.98589218 -0.23070171
1 -0.98877931 -0.24779378
1 -0.98896325 -0.26838309
1 -0.98875618 -0.2934947
1 -0.99265307 -0.30870485
1 -0.99165094 -0.33117232
1 -0.99144298 -0.35154569
1 -0.98962963 -0.36945027
1 -0.98934311 -0.39209798
1 -0.98874772 -0.4115625
1 -0.98986435 -0.42979112
1 -0.99097323 -0.44796214
1 -0.99106359 -0.47041255
1 -0.99410862 -0.50848854
1 -0.98888779 -0.52919936
1 -0.99114579 -0.55191302
1 -0.98958689 -0.56821412
1 -0.99401975 -0.59119123
1 -0.98896599 -0.61035055
1 -0.98945928 -0.62782007
1 -0.98989487 -0.65264517
1 -0.99563015 -0.67147249
1 -0.99285829 -0.71108437
1 -0.99078727 -0.73026514
1 -0.99096721 -0.74861699
1 -0.9885388 -0.77137065
1 -0.98886389 -0.79003733
1 -0.99063957 -0.80622077
1 -0.98828888 -0.83291554
1 -0.98934352 -0.84917521
1 -0.98967665 -0.8693639
1 -0.99152231 -0.89050293
1 -0.99394757 -0.93047887
1 -0.99032891 -0.95218033
1 -0.98868477 -0.96998721
1 -0.99182767 -0.98734462
1 -0.96925718 -0.98980743
1 -0.9477706 -0.99105692
1 -0.9313668 -0.99052578
1 -0.90942949 -0.99160993
1 -0.8938992 -0.9902848
1 -0.8690111 -0.99019098
1 -0.85354835 -0.99079579
1 -0.83042377 -0.98771065
1 -0.81264472 -0.9903869
1 -0.79017985 -0.99088353
1 -0.76848114 -0.99042034
1 -0.75209373 -0.99162126
1 -0.72769713 -0.99093992
1 -0.70858586 -0.98828846
1 -0.69007933 -0.99066287
1 -0.6671958 -0.99248189
1 -0.64866942 -0.99429554
1 -0.61055434 -0.99098152
1 -0.58974314 -0.99122095
1 -0.57017875 -0.98961926
1 -0.54692453 -0.99049395
1 -0.53071082 -0.9874832
1 -0.50981677 -0.98822039
1 -0.49085021 -0.9887554
1 -0.47129244 -0.99016464
1 -0.42742592 -0.99114603
1 -0.41032824 -0.99119103
1 -0.39183655 -0.99139494
1 -0.36838171 -0.988626
1 -0.35119876 -0.99170345
1 -0.32994482 -0.98957348
1 -0.31082195 -0.98711437
1 -0.29162455 -0.99072957
1 -0.26935557 -0.9883914
1 -0.2487586 -0.98831749
1 -0.23357269 -0.98918235
1 -0.20952797 -0.98864233
1 -0.18790312 -0.99115497
1 -0.16705561 -0.99618673
1 -0.13047168 -0.99066776
1 -0.1105175 -0.99134338
1 -0.092957877 -0.98793572
1 -0.06803447 -0.99096537
1 -0.047004633 -0.99063742
1 -0.0078301039 -0.99308312
1 0.010229428 -0.9901439
1 0.029121678 -0.9903304
1 0.050243776 -0.98992538
1 0.069987856 -0.99198169
1 0.089143522 -0.99168336
1 0.10751593 -0.98972285
1 0.12959905 -0.99151212
1 0.15039413 -0.98834741
1 0.19166881 -0.99213934
1 0.21236376 -0.9885174
1 0.22810782 -0.98751861
1 0.25238922 -0.99472833
1 0.293879 -0.99139833
1 0.30710828 -0.98959976
1 0.32946435 -0.98895758
1 0.34820023 -0.98757178
1 0.36812156 -0.98623288
1 0.38921404 -0.9877674
1 0.41087836 -0.99099445
1 0.42690772 -0.99059308
1 0.45046556 -0.99010062
1 0.48900008 -0.99093789
1 0.52930427 -0.98968858
1 0.54929656 -0.99079746
1 0.57049841 -0.9875378
1 0.58871317 -0.98789084
1 0.60838884 -0.98698556
1 0.62999767 -0.99296206
1 0.6485765 -0.99334079
1 0.67182624 -0.99280959
1 0.68866014 -0.98812163
1 0.70964098 -0.98756909
1 0.72589576 -0.98899591
1 0.74992043 -0.9914853
1 0.76790571 -0.99114311
1 0.79207188 -0.99024224
1 0.80630761 -0.98854619
1 0.82752252 -0.99101579
1 0.85282099 -0.9908303
1 0.8681131 -0.99176908
1 0.8875736 -0.99107587
1 0.91045737 -0.98840129
1 0.9317863 -0.9909156
1 0.95101792 -0.99145615
1 0.97084796 -0.99003458
1 0.99162716 -0.98526078
1 0.99148178 -0.97011429
1 0.99184632 -0.93348569
1 0.9929474 -0.88773108
1 0.99036461 -0.87224877
1 0.99038672 -0.84928399
1 0.9904834 -0.83171153
1 0.98876899 -0.81137067
1 0.99190354 -0.78969657
1 0.98958015 -0.77028841
1 0.9881053 -0.75024295
1 0.98907483 -0.72850418
1 0.98743385 -0.70964366
1 0.9916169 -0.68783551
1 0.98960865 -0.64910966
1 0.98881871 -0.63080972
1 0.98887891 -0.6102947
1 0.99438971 -0.59088761
