# .PCD v0.7 - Point Cloud Data file format
VERSION 0.7
FIELDS x y z rgb
SIZE 4 4 4 4
TYPE F F F F
COUNT 1 1 1 1
WIDTH 984
HEIGHT 1
VIEWPOINT 0 0 0 1 0 0 0
POINTS 984
DATA ascii
-0.93055379 -0.08813519 1.0001706 2.3509598e-38
-0.90831161 -0.090996601 1.0001643 2.3509598e-38
-0.89212912 -0.091116481 1.0001596 2.3509598e-38
-0.87113726 -0.088231437 1.0001535 2.3509598e-38
-0.85050476 -0.089117602 1.0001477 2.3509598e-38
-0.83144325 -0.090328656 1.0001423 2.3509598e-38
-0.80775112 -0.090800405 1.0001354 2.3509598e-38
-0.78808665 -0.085841499 1.0001299 2.3509598e-38
-0.76906312 -0.08737608 1.0001245 2.3509598e-38
-0.75048846 -0.087090872 1.0001192 2.3509598e-38
-0.73350441 -0.088511758 1.0001142 2.3509598e-38
-0.7073282 -0.091917917 1.0001068 2.3509598e-38
-0.69425911 -0.092134401 1.000103 2.3509598e-38
-0.66707009 -0.091963552 1.0000954 2.3509598e-38
-0.65103072 -0.090271108 1.0000907 2.3509598e-38
-0.63192302 -0.090402961 1.0000854 2.3509598e-38
-0.60886204 -0.088171385 1.0000787 2.3509598e-38
-0.59109008 -0.088333771 1.0000737 2.3509598e-38
-0.5680095 -0.089855626 1.000067 2.3509598e-38
-0.54859996 -0.087592065 1.0000615 2.3509598e-38
-0.53110868 -0.087035924 1.0000565 2.3509598e-38
-0.50870126 -0.092190005 1.0000501 2.3509598e-38
-0.48998511 -0.08927647 1.0000447 2.3509598e-38
-0.46831092 -0.090551682 1.0000385 2.3509598e-38
-0.45162287 -0.08881177 1.0000337 2.3509598e-38
-0.43194008 -0.090517402 1.0000281 2.3509598e-38
-0.4061048 -0.087099075 1.0000207 2.3509598e-38
-0.38837278 -0.088875934 1.0000157 2.3509598e-38
-0.37242609 -0.090984665 1.0000112 2.3509598e-38
-0.35006416 -0.091927327 1.0000048 2.3509598e-38
-0.32945544 -0.088645078 0.99999887 2.3509598e-38
-0.30967149 -0.091510698 0.99999321 2.3509598e-38
-0.28846651 -0.08954481 0.99998719 2.3509598e-38
-0.27331319 -0.088686518 0.99998283 2.3509598e-38
-0.24925348 -0.086025313 0.99997598 2.3509598e-38
-0.23146261 -0.088898629 0.99997085 2.3509598e-38
-0.20817769 -0.089197733 0.99996424 2.3509598e-38
-0.18920952 -0.089768223 0.99995881 2.3509598e-38
-0.1709483 -0.090560324 0.99995357 2.3509598e-38
-0.15244401 -0.089286402 0.99994832 2.3509598e-38
-0.12894754 -0.09022554 0.99994159 2.3509598e-38
-0.11193547 -0.093748733 0.9999367 2.3509598e-38
-0.091888614 -0.088926926 0.99993098 2.3509598e-38
-0.069341145 -0.087746978 0.99992454 2.3509598e-38
-0.050630011 -0.090190731 0.99991924 2.3509598e-38
-0.026764896 -0.088968351 0.99991238 2.3509598e-38
-0.013480349 -0.089923456 0.99990863 2.3509598e-38
0.011690658 -0.092360638 0.99990141 2.3509598e-38
0.028818881 -0.090647958 0.99989653 2.3509598e-38
0.051659476 -0.092692219 0.99988997 2.3509598e-38
0.069220603 -0.091902174 0.99988496 2.3509598e-38
0.08929158 -0.083618641 0.99987924 2.3509598e-38
0.10641495 -0.088436387 0.99987435 2.3509598e-38
0.13141932 -0.088454902 0.9998672 2.3509598e-38
0.15005568 -0.090187721 0.99986184 2.3509598e-38
0.17088096 -0.088966049 0.999856 2.3509598e-38
0.18924733 -0.094050169 0.99985075 2.3509598e-38
0.21162663 -0.0888566 0.99984431 2.3509598e-38
0.23111065 -0.090567186 0.99983871 2.3509598e-38
0.24838197 -0.091192089 0.99983382 2.3509598e-38
0.26900411 -0.092867285 0.99982786 2.3509598e-38
0.2888644 -0.090358734 0.99982226 2.3509598e-38
0.30922112 -0.091442205 0.99981642 2.3509598e-38
0.32987335 -0.089035511 0.99981058 2.3509598e-38
0.3517043 -0.092266612 0.99980426 2.3509598e-38
0.36915737 -0.090096436 0.99979925 2.3509598e-38
0.38946843 -0.090226315 0.99979353 2.3509598e-38
0.41010571 -0.087065838 0.99978757 2.3509598e-38
0.42717594 -0.087687254 0.99978268 2.3509598e-38
0.44378766 -0.084635191 0.99977803 2.3509598e-38
0.4699932 -0.08808618 0.99977052 2.3509598e-38
0.48814377 -0.092668533 0.99976528 2.3509598e-38
0.5102002 -0.089671306 0.99975896 2.3509598e-38
0.52873445 -0.08691851 0.99975371 2.3509598e-38
0.55431294 -0.090606749 0.99974644 2.3509598e-38
0.5690828 -0.089171693 0.99974215 2.3509598e-38
0.58615696 -0.08910688 0.99973726 2.3509598e-38
0.60828441 -0.086927056 0.99973094 2.3509598e-38
0.62849516 -0.09306699 0.99972522 2.3509598e-38
0.64950526 -0.089821152 0.99971926 2.3509598e-38
0.66974956 -0.088041067 0.99971342 2.3509598e-38
0.689955 -0.092983581 0.9997077 2.3509598e-38
0.71206456 -0.092327803 0.99970138 2.3509598e-38
0.73336762 -0.090945914 0.9996953 2.3509598e-38
0.75088692 -0.089947298 0.99969029 2.3509598e-38
0.77189314 -0.089718059 0.99968421 2.3509598e-38
0.788638 -0.090436101 0.99967945 2.3509598e-38
0.80868119 -0.091328673 0.99967372 2.3509598e-38
0.83111298 -0.087795436 0.99966729 2.3509598e-38
0.84923697 -0.090058908 0.99966216 2.3509598e-38
0.87198168 -0.09083569 0.9996556 2.3509598e-38
0.89175105 -0.090100817 0.99965 2.3509598e-38
0.91051424 -0.089877605 0.99964464 2.3509598e-38
0.92919129 -0.090656973 0.99963927 2.3509598e-38
0.94954574 -0.087295815 0.99963355 2.3509598e-38
0.96756196 -0.089930534 0.99962831 2.3509598e-38
0.98855418 -0.09123525 0.99962234 2.3509598e-38
-0.98862469 -0.068994403 1.0001872 2.3509598e-38
-0.96894336 -0.070986271 1.0001816 2.3509598e-38
-0.94960433 -0.06941434 1.000176 2.3509598e-38
-0.93017399 -0.070590548 1.0001705 2.3509598e-38
-0.90877396 -0.071773462 1.0001643 2.3509598e-38
-0.89125109 -0.068407536 1.0001593 2.3509598e-38
-0.86917204 -0.069019675 1.0001531 2.3509598e-38
-0.85055411 -0.069819741 1.0001477 2.3509598e-38
-0.82921541 -0.072167158 1.0001416 2.3509598e-38
-0.81366694 -0.072096638 1.0001372 2.3509598e-38
-0.7914201 -0.067922473 1.0001309 2.3509598e-38
-0.77216828 -0.072132215 1.0001254 2.3509598e-38
-0.74840689 -0.069160782 1.0001185 2.3509598e-38
-0.73297489 -0.067897514 1.0001142 2.3509598e-38
-0.70980203 -0.069643155 1.0001075 2.3509598e-38
-0.69118041 -0.067496255 1.0001023 2.3509598e-38
-0.67144763 -0.069622554 1.0000966 2.3509598e-38
-0.65064287 -0.071749508 1.0000906 2.3509598e-38
-0.63087517 -0.06879966 1.000085 2.3509598e-38
-0.60829413 -0.073299222 1.0000784 2.3509598e-38
-0.59120345 -0.067933485 1.0000737 2.3509598e-38
-0.57111818 -0.070036888 1.0000679 2.3509598e-38
-0.55241781 -0.069233209 1.0000626 2.3509598e-38
-0.53170323 -0.071007803 1.0000566 2.3509598e-38
-0.50906265 -0.070666946 1.0000502 2.3509598e-38
-0.48904884 -0.069833755 1.0000445 2.3509598e-38
-0.47432491 -0.068127535 1.0000403 2.3509598e-38
-0.45041662 -0.072894238 1.0000334 2.3509598e-38
-0.43265986 -0.068731524 1.0000284 2.3509598e-38
-0.4089216 -0.070454717 1.0000216 2.3509598e-38
-0.39055237 -0.068686724 1.0000163 2.3509598e-38
-0.37235826 -0.070726871 1.0000112 2.3509598e-38
-0.3534545 -0.071224265 1.0000057 2.3509598e-38
-0.33209705 -0.071002312 0.99999964 2.3509598e-38
-0.30892783 -0.07141187 0.99999303 2.3509598e-38
-0.29156208 -0.070521288 0.99998802 2.3509598e-38
-0.26939398 -0.06729646 0.9999817 2.3509598e-38
-0.24746704 -0.07510753 0.99997544 2.3509598e-38
-0.2278745 -0.070467152 0.99996984 2.3509598e-38
-0.20600501 -0.073085047 0.99996358 2.3509598e-38
-0.19159922 -0.069946185 0.99995947 2.3509598e-38
-0.17199792 -0.069966197 0.99995387 2.3509598e-38
-0.15269507 -0.071799517 0.99994838 2.3509598e-38
-0.13486107 -0.070526339 0.99994326 2.3509598e-38
-0.11339361 -0.071569636 0.99993712 2.3509598e-38
-0.087471068 -0.071286239 0.99992973 2.3509598e-38
-0.071002029 -0.071241654 0.99992502 2.3509598e-38
-0.051200483 -0.070547312 0.99991935 2.3509598e-38
-0.025683785 -0.069517732 0.99991208 2.3509598e-38
-0.010222431 -0.069188654 0.99990767 2.3509598e-38
0.0088996077 -0.069491282 0.99990225 2.3509598e-38
0.03254186 -0.068267927 0.99989545 2.3509598e-38
0.050915252 -0.070941374 0.99989021 2.3509598e-38
0.06905444 -0.066719055 0.99988508 2.3509598e-38
0.093148611 -0.068687081 0.99987817 2.3509598e-38
0.10937457 -0.070107542 0.99987352 2.3509598e-38
0.12827928 -0.070949435 0.99986815 2.3509598e-38
0.1481916 -0.070071414 0.99986243 2.3509598e-38
0.17034282 -0.069807313 0.99985611 2.3509598e-38
0.18896127 -0.06913586 0.99985075 2.3509598e-38
0.20986836 -0.069168091 0.99984479 2.3509598e-38
0.22884886 -0.069208995 0.99983943 2.3509598e-38
0.25090092 -0.068523347 0.99983311 2.3509598e-38
0.2651788 -0.067845911 0.99982905 2.3509598e-38
0.28974417 -0.068161823 0.99982202 2.3509598e-38
0.3091093 -0.070528887 0.99981642 2.3509598e-38
0.32902712 -0.068592928 0.99981081 2.3509598e-38
0.35406297 -0.066508532 0.99980366 2.3509598e-38
0.37021321 -0.069664262 0.99979901 2.3509598e-38
0.39014009 -0.074262753 0.99979329 2.3509598e-38
0.40959087 -0.073938847 0.99978769 2.3509598e-38
0.43442857 -0.070763886 0.99978065 2.3509598e-38
0.45070699 -0.067913316 0.99977601 2.3509598e-38
0.46833873 -0.070416354 0.999771 2.3509598e-38
0.48833644 -0.070695817 0.99976528 2.3509598e-38
0.51077479 -0.0685945 0.99975884 2.3509598e-38
0.52840543 -0.069685414 0.99975383 2.3509598e-38
0.55024403 -0.073658727 0.99974751 2.3509598e-38
0.57204473 -0.067104384 0.99974132 2.3509598e-38
0.59192848 -0.069672823 0.99973571 2.3509598e-38
0.60934138 -0.068989247 0.99973071 2.3509598e-38
0.62960595 -0.071908616 0.99972486 2.3509598e-38
0.64901209 -0.072183982 0.99971938 2.3509598e-38
0.6707561 -0.073380411 0.99971318 2.3509598e-38
0.68981326 -0.06742616 0.9997077 2.3509598e-38
0.71174741 -0.068832554 0.99970138 2.3509598e-38
0.73172343 -0.07160157 0.99969578 2.3509598e-38
0.75033134 -0.070164025 0.99969041 2.3509598e-38
0.77087933 -0.069859847 0.99968457 2.3509598e-38
0.78765321 -0.070920393 0.9996798 2.3509598e-38
0.8102532 -0.068929009 0.99967325 2.3509598e-38
0.83132052 -0.06908083 0.99966729 2.3509598e-38
0.84778631 -0.071514189 0.99966252 2.3509598e-38
0.86975634 -0.070580177 0.99965632 2.3509598e-38
0.88936651 -0.069896601 0.99965072 2.3509598e-38
0.91147518 -0.071411982 0.9996444 2.3509598e-38
0.9257046 -0.074095868 0.99964035 2.3509598e-38
0.94901162 -0.073154122 0.99963367 2.3509598e-38
0.96788669 -0.070635758 0.99962831 2.3509598e-38
0.98857629 -0.067798905 0.99962234 2.3509598e-38
-0.98876679 -0.049535036 1.0001872 2.3509598e-38
-0.97053152 -0.050936066 1.0001819 2.3509598e-38
-0.94687027 -0.051393308 1.0001752 2.3509598e-38
-0.93073183 -0.048642159 1.0001707 2.3509598e-38
-0.91022718 -0.048614837 1.0001647 2.3509598e-38
-0.88846767 -0.049886227 1.0001585 2.3509598e-38
-0.86988246 -0.047779202 1.0001533 2.3509598e-38
-0.84797066 -0.050919354 1.000147 2.3509598e-38
-0.83535671 -0.051183045 1.0001434 2.3509598e-38
-0.80902678 -0.048322201 1.0001359 2.3509598e-38
-0.78942627 -0.049194425 1.0001302 2.3509598e-38
-0.76934183 -0.048452269 1.0001245 2.3509598e-38
-0.75052428 -0.053093433 1.0001192 2.3509598e-38
-0.7330119 -0.048125066 1.0001142 2.3509598e-38
-0.70839554 -0.050269246 1.000107 2.3509598e-38
-0.69573057 -0.048779394 1.0001035 2.3509598e-38
-0.67050451 -0.049247745 1.0000963 2.3509598e-38
-0.651326 -0.048598465 1.0000908 2.3509598e-38
-0.63493478 -0.047021449 1.0000861 2.3509598e-38
-0.60906702 -0.052035302 1.0000787 2.3509598e-38
-0.59091741 -0.049222682 1.0000736 2.3509598e-38
-0.57347769 -0.053549211 1.0000685 2.3509598e-38
-0.5516451 -0.050617363 1.0000623 2.3509598e-38
-0.52853388 -0.050169978 1.0000558 2.3509598e-38
-0.51131988 -0.050115317 1.0000508 2.3509598e-38
-0.48975408 -0.047749043 1.0000446 2.3509598e-38
-0.46991247 -0.052146826 1.000039 2.3509598e-38
-0.45081729 -0.049055737 1.0000336 2.3509598e-38
-0.43269902 -0.050371837 1.0000284 2.3509598e-38
-0.40962982 -0.051953688 1.0000217 2.3509598e-38
-0.39220005 -0.053648546 1.0000168 2.3509598e-38
-0.37154141 -0.051428001 1.000011 2.3509598e-38
-0.35160732 -0.049471617 1.0000052 2.3509598e-38
-0.32703885 -0.049342822 0.99999815 2.3509598e-38
-0.3105976 -0.050842445 0.9999935 2.3509598e-38
-0.2920292 -0.048215438 0.9999882 2.3509598e-38
-0.27049476 -0.053170353 0.999982 2.3509598e-38
-0.24621364 -0.048564844 0.99997509 2.3509598e-38
-0.22622626 -0.046298981 0.99996936 2.3509598e-38
-0.21007407 -0.049391374 0.99996477 2.3509598e-38
-0.19287835 -0.047762237 0.99995983 2.3509598e-38
-0.17013007 -0.049275875 0.99995333 2.3509598e-38
-0.1547441 -0.052586831 0.99994898 2.3509598e-38
-0.13309284 -0.049045701 0.99994278 2.3509598e-38
-0.1070153 -0.05080292 0.99993533 2.3509598e-38
-0.090944365 -0.054979376 0.99993074 2.3509598e-38
-0.071940228 -0.049241617 0.99992532 2.3509598e-38
-0.051756449 -0.048966799 0.99991953 2.3509598e-38
-0.030429812 -0.052624065 0.99991345 2.3509598e-38
-0.0073697357 -0.045997288 0.99990684 2.3509598e-38
0.012531133 -0.052596092 0.99990118 2.3509598e-38
0.030397862 -0.04796949 0.99989605 2.3509598e-38
0.048756775 -0.049140252 0.9998908 2.3509598e-38
0.077394456 -0.050334774 0.9998827 2.3509598e-38
0.091455743 -0.049616575 0.99987864 2.3509598e-38
0.10629865 -0.049356144 0.99987435 2.3509598e-38
0.13302726 -0.048927914 0.99986672 2.3509598e-38
0.14899614 -0.048832282 0.99986219 2.3509598e-38
0.17060758 -0.050823748 0.999856 2.3509598e-38
0.19034784 -0.047210164 0.99985039 2.3509598e-38
0.21144603 -0.049367603 0.99984431 2.3509598e-38
0.22937484 -0.050754391 0.99983919 2.3509598e-38
0.24742435 -0.048273034 0.99983406 2.3509598e-38
0.27083322 -0.046849471 0.99982738 2.3509598e-38
0.2898806 -0.050074708 0.9998219 2.3509598e-38
0.3107613 -0.051675178 0.99981594 2.3509598e-38
0.32966247 -0.047441006 0.99981058 2.3509598e-38
0.3517454 -0.052729037 0.99980426 2.3509598e-38
0.36658227 -0.049696326 0.99980009 2.3509598e-38
0.38544539 -0.049038835 0.9997946 2.3509598e-38
0.40854356 -0.049866296 0.99978805 2.3509598e-38
0.42729804 -0.051002137 0.99978268 2.3509598e-38
0.45226142 -0.049614772 0.99977553 2.3509598e-38
0.47159767 -0.049729135 0.99977005 2.3509598e-38
0.48959833 -0.051164627 0.99976492 2.3509598e-38
0.50884628 -0.051180363 0.99975944 2.3509598e-38
0.52817255 -0.052366339 0.99975383 2.3509598e-38
0.5523054 -0.046704076 0.99974704 2.3509598e-38
0.57082546 -0.053936917 0.99974167 2.3509598e-38
0.58957785 -0.047905527 0.99973631 2.3509598e-38
0.60919178 -0.049869198 0.99973071 2.3509598e-38
0.63176239 -0.048428953 0.99972427 2.3509598e-38
0.64726591 -0.049439382 0.99971986 2.3509598e-38
0.67340696 -0.050483346 0.99971235 2.3509598e-38
0.69155014 -0.04995092 0.99970722 2.3509598e-38
0.71020973 -0.050139189 0.99970186 2.3509598e-38
0.72836626 -0.048604745 0.99969673 2.3509598e-38
0.74829304 -0.052937169 0.99969101 2.3509598e-38
0.76855314 -0.051762868 0.99968517 2.3509598e-38
0.78944087 -0.050481983 0.99967921 2.3509598e-38
0.81142062 -0.049816798 0.99967301 2.3509598e-38
0.83010292 -0.049302876 0.99966764 2.3509598e-38
0.85340434 -0.053433966 0.99966097 2.3509598e-38
0.87048864 -0.05242553 0.99965608 2.3509598e-38
0.89035583 -0.051313676 0.99965036 2.3509598e-38
0.91107416 -0.050180245 0.99964452 2.3509598e-38
0.93201166 -0.051105142 0.99963856 2.3509598e-38
0.95149344 -0.052313875 0.99963295 2.3509598e-38
0.96827668 -0.051525593 0.99962819 2.3509598e-38
0.99182397 -0.048163414 0.99962139 2.3509598e-38
-0.98927224 -0.031187415 1.0001874 2.3509598e-38
-0.97040778 -0.030019935 1.0001819 2.3509598e-38
-0.94621879 -0.030066252 1.000175 2.3509598e-38
-0.93055105 -0.029243257 1.0001706 2.3509598e-38
-0.91006279 -0.031084199 1.0001647 2.3509598e-38
-0.88688904 -0.024723291 1.0001581 2.3509598e-38
-0.87136805 -0.027184805 1.0001537 2.3509598e-38
-0.84912938 -0.031227112 1.0001473 2.3509598e-38
-0.83153051 -0.031342074 1.0001423 2.3509598e-38
-0.80960566 -0.029280057 1.000136 2.3509598e-38
-0.78839213 -0.028583407 1.0001299 2.3509598e-38
-0.77159774 -0.035162639 1.0001252 2.3509598e-38
-0.74979788 -0.029993189 1.000119 2.3509598e-38
-0.73058796 -0.032271609 1.0001135 2.3509598e-38
-0.70866829 -0.033346463 1.0001072 2.3509598e-38
-0.6887182 -0.029442186 1.0001016 2.3509598e-38
-0.67068315 -0.02972444 1.0000963 2.3509598e-38
-0.6499083 -0.028253222 1.0000904 2.3509598e-38
-0.62825358 -0.028480213 1.0000842 2.3509598e-38
-0.60954058 -0.028254913 1.0000789 2.3509598e-38
-0.59007543 -0.030581202 1.0000733 2.3509598e-38
-0.5675438 -0.030613702 1.0000669 2.3509598e-38
-0.5509994 -0.032588657 1.0000622 2.3509598e-38
-0.52883697 -0.029831275 1.0000558 2.3509598e-38
-0.50879216 -0.027312027 1.0000501 2.3509598e-38
-0.49093455 -0.03052862 1.0000451 2.3509598e-38
-0.47051516 -0.030714406 1.0000391 2.3509598e-38
-0.4496983 -0.03248493 1.0000331 2.3509598e-38
-0.43006012 -0.030459493 1.0000277 2.3509598e-38
-0.40903497 -0.029750824 1.0000216 2.3509598e-38
-0.38764587 -0.029628119 1.0000155 2.3509598e-38
-0.37263077 -0.030229092 1.0000112 2.3509598e-38
-0.34802088 -0.031464681 1.0000042 2.3509598e-38
-0.33309507 -0.028507197 0.99999988 2.3509598e-38
-0.31203863 -0.028119484 0.99999386 2.3509598e-38
-0.28846061 -0.029665254 0.99998713 2.3509598e-38
-0.27076393 -0.032423459 0.99998212 2.3509598e-38
-0.24769919 -0.030834278 0.9999755 2.3509598e-38
-0.22857501 -0.030530989 0.99997002 2.3509598e-38
-0.21221721 -0.032090951 0.99996537 2.3509598e-38
-0.1897492 -0.02942884 0.99995893 2.3509598e-38
-0.17016985 -0.030863106 0.99995339 2.3509598e-38
-0.14716733 -0.031721782 0.99994677 2.3509598e-38
-0.13157314 -0.031697273 0.99994236 2.3509598e-38
-0.10789201 -0.030908268 0.99993557 2.3509598e-38
-0.090590298 -0.030034717 0.99993062 2.3509598e-38
-0.069665894 -0.027483243 0.99992466 2.3509598e-38
-0.047861028 -0.031558942 0.9999184 2.3509598e-38
-0.030961061 -0.029897882 0.99991357 2.3509598e-38
-0.0096263355 -0.029487729 0.99990749 2.3509598e-38
0.010107649 -0.029949745 0.99990189 2.3509598e-38
0.031733245 -0.030244781 0.99989569 2.3509598e-38
0.050495166 -0.030517865 0.99989033 2.3509598e-38
0.06881921 -0.029006196 0.99988508 2.3509598e-38
0.088796504 -0.028553486 0.99987936 2.3509598e-38
0.10984055 -0.029590894 0.9998734 2.3509598e-38
0.13434964 -0.033852782 0.99986637 2.3509598e-38
0.14859469 -0.033843756 0.99986231 2.3509598e-38
0.16999385 -0.032067437 0.99985623 2.3509598e-38
0.19219746 -0.031023806 0.9998498 2.3509598e-38
0.20788145 -0.030344535 0.99984539 2.3509598e-38
0.2311092 -0.032328714 0.99983871 2.3509598e-38
0.25144404 -0.028862953 0.99983287 2.3509598e-38
0.26694757 -0.029964387 0.99982846 2.3509598e-38
0.28755748 -0.032481126 0.99982262 2.3509598e-38
0.3081671 -0.026191426 0.99981678 2.3509598e-38
0.32975563 -0.02877493 0.99981058 2.3509598e-38
0.34891337 -0.030768454 0.99980509 2.3509598e-38
0.37238321 -0.028527554 0.99979842 2.3509598e-38
0.3891919 -0.026878517 0.99979353 2.3509598e-38
0.41067016 -0.026296854 0.99978745 2.3509598e-38
0.43024528 -0.033179581 0.99978185 2.3509598e-38
0.44866955 -0.032549679 0.9997766 2.3509598e-38
0.46969661 -0.031064164 0.99977052 2.3509598e-38
0.49251798 -0.031539761 0.99976408 2.3509598e-38
0.51467472 -0.027086927 0.99975777 2.3509598e-38
0.53106678 -0.029976845 0.999753 2.3509598e-38
0.54794252 -0.02820077 0.99974823 2.3509598e-38
0.5706687 -0.029912207 0.99974167 2.3509598e-38
0.59157735 -0.0306862 0.99973571 2.3509598e-38
0.61273378 -0.033761937 0.99972975 2.3509598e-38
0.62582523 -0.024753708 0.99972594 2.3509598e-38
0.65214849 -0.030191423 0.99971843 2.3509598e-38
0.67097336 -0.030694295 0.99971306 2.3509598e-38
0.69110811 -0.029036257 0.99970734 2.3509598e-38
0.70940787 -0.029910475 0.9997021 2.3509598e-38
0.72921938 -0.033037316 0.99969649 2.3509598e-38
0.75227588 -0.030551156 0.99968982 2.3509598e-38
0.76674449 -0.030767918 0.99968576 2.3509598e-38
0.78573191 -0.031303223 0.99968028 2.3509598e-38
0.81201142 -0.031330846 0.99967277 2.3509598e-38
0.83059978 -0.025468394 0.99966753 2.3509598e-38
0.84820682 -0.029662337 0.9996624 2.3509598e-38
0.87003893 -0.031340837 0.9996562 2.3509598e-38
0.89039898 -0.028021479 0.99965036 2.3509598e-38
0.91297084 -0.028218159 0.99964392 2.3509598e-38
0.93135965 -0.02939578 0.99963868 2.3509598e-38
0.94996077 -0.03207811 0.99963343 2.3509598e-38
0.97252536 -0.03099668 0.99962699 2.3509598e-38
0.98961437 -0.032745957 0.99962211 2.3509598e-38
-0.99061447 -0.011124074 1.0001878 2.3509598e-38
-0.97133851 -0.014669679 1.0001822 2.3509598e-38
-0.9487403 -0.0095296772 1.0001757 2.3509598e-38
-0.93136436 -0.011971327 1.0001708 2.3509598e-38
-0.91132379 -0.0098273754 1.0001651 2.3509598e-38
-0.89533347 -0.014638425 1.0001605 2.3509598e-38
-0.86999261 -0.0076495172 1.0001533 2.3509598e-38
-0.84847635 -0.010697885 1.0001471 2.3509598e-38
-0.82955056 -0.01225996 1.0001417 2.3509598e-38
-0.81295723 -0.012691212 1.000137 2.3509598e-38
-0.78588915 -0.0066061025 1.0001292 2.3509598e-38
-0.77697223 -0.009424448 1.0001267 2.3509598e-38
-0.74860352 -0.011633396 1.0001186 2.3509598e-38
-0.73270863 -0.014293432 1.0001141 2.3509598e-38
-0.71159595 -0.014727974 1.000108 2.3509598e-38
-0.68840587 -0.011904061 1.0001013 2.3509598e-38
-0.67158329 -0.01064086 1.0000966 2.3509598e-38
-0.64899027 -0.0099259531 1.0000901 2.3509598e-38
-0.62909764 -0.0077506066 1.0000844 2.3509598e-38
-0.61017096 -0.0092583438 1.000079 2.3509598e-38
-0.59004331 -0.012044072 1.0000733 2.3509598e-38
-0.56826359 -0.0136959 1.000067 2.3509598e-38
-0.55229211 -0.0091036391 1.0000625 2.3509598e-38
-0.53021747 -0.0089535993 1.0000563 2.3509598e-38
-0.50709766 -0.0075234007 1.0000496 2.3509598e-38
-0.48619214 -0.011836427 1.0000436 2.3509598e-38
-0.46835151 -0.013127941 1.0000386 2.3509598e-38
-0.45107996 -0.0093924608 1.0000336 2.3509598e-38
-0.42915994 -0.0094076004 1.0000274 2.3509598e-38
-0.40829968 -0.0077420236 1.0000215 2.3509598e-38
-0.39205089 -0.010473198 1.0000167 2.3509598e-38
-0.37321264 -0.012312412 1.0000114 2.3509598e-38
-0.34853142 -0.0066861315 1.0000043 2.3509598e-38
-0.32762712 -0.0096921921 0.99999833 2.3509598e-38
-0.30994982 -0.0092797279 0.99999326 2.3509598e-38
-0.28952634 -0.010058505 0.99998748 2.3509598e-38
-0.26892322 -0.012287549 0.99998158 2.3509598e-38
-0.25065422 -0.0075831413 0.99997634 2.3509598e-38
-0.22526714 -0.011381388 0.99996912 2.3509598e-38
-0.20809636 -0.011808612 0.99996418 2.3509598e-38
-0.19187726 -0.010113023 0.99995959 2.3509598e-38
-0.1694718 -0.010344347 0.99995315 2.3509598e-38
-0.14666945 -0.0072320937 0.99994665 2.3509598e-38
-0.12854616 -0.011727906 0.99994147 2.3509598e-38
-0.10894866 -0.0083882213 0.99993587 2.3509598e-38
-0.09241315 -0.011993706 0.99993116 2.3509598e-38
-0.068433344 -0.0077361427 0.9999243 2.3509598e-38
-0.051418975 -0.0091003357 0.99991941 2.3509598e-38
-0.030522371 -0.010431897 0.99991345 2.3509598e-38
-0.0089221261 -0.0097195553 0.99990731 2.3509598e-38
0.0092525203 -0.005638903 0.99990213 2.3509598e-38
0.029895118 -0.0072015128 0.99989617 2.3509598e-38
0.048558719 -0.010202374 0.99989092 2.3509598e-38
0.068308644 -0.010669351 0.9998852 2.3509598e-38
0.088613234 -0.013930417 0.99987948 2.3509598e-38
0.10929541 -0.01250434 0.99987352 2.3509598e-38
0.13009344 -0.0087848902 0.99986756 2.3509598e-38
0.14979939 -0.0096066594 0.99986196 2.3509598e-38
0.17180635 -0.010838866 0.99985564 2.3509598e-38
0.18833771 -0.0088336207 0.99985099 2.3509598e-38
0.21177043 -0.01051569 0.99984431 2.3509598e-38
0.22868517 -0.01030408 0.99983943 2.3509598e-38
0.2492521 -0.0067583323 0.99983358 2.3509598e-38
0.27037114 -0.0077978773 0.9998275 2.3509598e-38
0.28652239 -0.010906744 0.99982285 2.3509598e-38
0.31133747 -0.011504724 0.99981582 2.3509598e-38
0.32938257 -0.011782169 0.9998107 2.3509598e-38
0.34842613 -0.0045032981 0.99980521 2.3509598e-38
0.36947984 -0.0097635388 0.99979925 2.3509598e-38
0.39112487 -0.01243932 0.99979305 2.3509598e-38
0.40799204 -0.012169566 0.99978817 2.3509598e-38
0.43117756 -0.013523857 0.99978161 2.3509598e-38
0.45262557 -0.0080067692 0.99977541 2.3509598e-38
0.46664184 -0.0090770721 0.99977148 2.3509598e-38
0.48993227 -0.0075192451 0.9997648 2.3509598e-38
0.50773329 -0.011141837 0.99975967 2.3509598e-38
0.53193355 -0.0073577166 0.99975276 2.3509598e-38
0.55113834 -0.0082943784 0.99974728 2.3509598e-38
0.56794351 -0.010312653 0.99974251 2.3509598e-38
0.591447 -0.0066047311 0.99973583 2.3509598e-38
0.60843843 -0.0083924932 0.99973094 2.3509598e-38
0.63212496 -0.0094945654 0.99972415 2.3509598e-38
0.65210557 -0.014565945 0.99971843 2.3509598e-38
0.67130446 -0.0080266735 0.99971294 2.3509598e-38
0.69209945 -0.0089876922 0.9997071 2.3509598e-38
0.71281725 -0.010154307 0.99970114 2.3509598e-38
0.72884536 -0.0097222328 0.99969649 2.3509598e-38
0.75308603 -0.0086379051 0.99968958 2.3509598e-38
0.76886624 -0.009233051 0.99968517 2.3509598e-38
0.78793883 -0.011616487 0.99967968 2.3509598e-38
0.81379223 -0.012283469 0.99967229 2.3509598e-38
0.82667857 -0.0071698599 0.9996686 2.3509598e-38
0.85037589 -0.010688132 0.9996618 2.3509598e-38
0.8724941 -0.008461033 0.99965549 2.3509598e-38
0.88778055 -0.0067825317 0.99965119 2.3509598e-38
0.90978223 -0.010284997 0.99964488 2.3509598e-38
0.93069685 -0.0087137222 0.99963892 2.3509598e-38
0.94946003 -0.0088750925 0.99963355 2.3509598e-38
0.9703846 -0.0071451524 0.99962759 2.3509598e-38
0.99099952 -0.011876266 0.99962163 2.3509598e-38
-0.99037671 0.0086802905 1.0001876 2.3509598e-38
-0.9704017 0.010484855 1.0001819 2.3509598e-38
-0.94605494 0.0089500975 1.000175 2.3509598e-38
-0.92844695 0.0088309711 1.00017 2.3509598e-38
-0.90821177 0.009056312 1.0001643 2.3509598e-38
-0.89040899 0.0086510004 1.000159 2.3509598e-38
-0.87111074 0.0092139933 1.0001535 2.3509598e-38
-0.8508665 0.0091773272 1.0001478 2.3509598e-38
-0.82919687 0.0091289608 1.0001416 2.3509598e-38
-0.80834305 0.010224009 1.0001357 2.3509598e-38
-0.78633153 0.0098473234 1.0001295 2.3509598e-38
-0.7696166 0.0092110299 1.0001246 2.3509598e-38
-0.74776471 0.012408972 1.0001184 2.3509598e-38
-0.73120302 0.010599223 1.0001136 2.3509598e-38
-0.70996535 0.0080634439 1.0001075 2.3509598e-38
-0.69074315 0.010317326 1.000102 2.3509598e-38
-0.67302608 0.0089848042 1.000097 2.3509598e-38
-0.65011775 0.0079840347 1.0000905 2.3509598e-38
-0.62888992 0.011475303 1.0000844 2.3509598e-38
-0.61361474 0.010735131 1.0000801 2.3509598e-38
-0.58951175 0.0069631739 1.0000732 2.3509598e-38
-0.56944847 0.010367076 1.0000675 2.3509598e-38
-0.54909366 0.0043021613 1.0000616 2.3509598e-38
-0.5314616 0.0091948509 1.0000565 2.3509598e-38
-0.51114148 0.012225935 1.0000508 2.3509598e-38
-0.48917848 0.0094103813 1.0000445 2.3509598e-38
-0.4695878 0.010152991 1.0000389 2.3509598e-38
-0.44831687 0.011160374 1.0000329 2.3509598e-38
-0.42597017 0.010154247 1.0000265 2.3509598e-38
-0.40825343 0.013435364 1.0000215 2.3509598e-38
-0.38983867 0.0086044315 1.0000161 2.3509598e-38
-0.37222669 0.011094133 1.0000111 2.3509598e-38
-0.35170579 0.0093638506 1.0000052 2.3509598e-38
-0.33192596 0.0097809313 0.99999958 2.3509598e-38
-0.3121039 0.011842512 0.99999392 2.3509598e-38
-0.29272389 0.0086155739 0.99998838 2.3509598e-38
-0.26693487 0.011835151 0.99998099 2.3509598e-38
-0.25104707 0.010995763 0.99997646 2.3509598e-38
-0.22506239 0.0033053558 0.99996907 2.3509598e-38
-0.20860578 0.0089110266 0.99996436 2.3509598e-38
-0.19255032 0.0084798336 0.99995977 2.3509598e-38
-0.16944587 0.010702277 0.99995315 2.3509598e-38
-0.14834347 0.0095484527 0.99994713 2.3509598e-38
-0.12932071 0.012770722 0.99994171 2.3509598e-38
-0.1113543 0.009298875 0.99993658 2.3509598e-38
-0.093415663 0.0089822775 0.99993145 2.3509598e-38
-0.064645983 0.0104105 0.99992323 2.3509598e-38
-0.048004944 0.0082214065 0.99991846 2.3509598e-38
-0.028007532 0.0095176306 0.99991274 2.3509598e-38
-0.010900285 0.012790998 0.99990785 2.3509598e-38
0.0097944457 0.0086619062 0.99990201 2.3509598e-38
0.030085249 0.0096503263 0.99989617 2.3509598e-38
0.048613966 0.0084247915 0.99989092 2.3509598e-38
0.067253493 0.0076664519 0.99988556 2.3509598e-38
0.0857189 0.0094968192 0.99988031 2.3509598e-38
0.10874976 0.0074094995 0.99987364 2.3509598e-38
0.13016887 0.013585908 0.99986756 2.3509598e-38
0.15178083 0.010681152 0.99986136 2.3509598e-38
0.17261283 0.0094194943 0.9998554 2.3509598e-38
0.19107993 0.010139552 0.99985015 2.3509598e-38
0.20893508 0.0088358615 0.99984503 2.3509598e-38
0.2283531 0.0095591918 0.99983954 2.3509598e-38
0.24917503 0.014597178 0.99983358 2.3509598e-38
0.27252573 0.0075538158 0.99982691 2.3509598e-38
0.29202884 0.015705109 0.99982131 2.3509598e-38
0.31112957 0.010586292 0.99981582 2.3509598e-38
0.33384022 0.011268881 0.99980938 2.3509598e-38
0.35247618 0.010040343 0.99980402 2.3509598e-38
0.3724519 0.011634014 0.9997983 2.3509598e-38
0.38551101 0.015316691 0.9997946 2.3509598e-38
0.41252345 0.012413931 0.99978685 2.3509598e-38
0.4341414 0.0072148326 0.99978077 2.3509598e-38
0.44938937 0.012102565 0.99977636 2.3509598e-38
0.46722388 0.0083014965 0.99977124 2.3509598e-38
0.48868385 0.01060791 0.99976516 2.3509598e-38
0.51293659 0.012299198 0.99975824 2.3509598e-38
0.52927417 0.011962593 0.99975359 2.3509598e-38
0.54849434 0.010996925 0.99974811 2.3509598e-38
0.56735325 0.012357235 0.99974263 2.3509598e-38
0.58942455 0.0095950365 0.99973643 2.3509598e-38
0.60840404 0.0069614928 0.99973094 2.3509598e-38
0.63267171 0.010183176 0.99972403 2.3509598e-38
0.65169656 0.0076242858 0.99971855 2.3509598e-38
0.66860247 0.010030535 0.99971378 2.3509598e-38
0.68946421 0.013859205 0.99970782 2.3509598e-38
0.70988911 0.011319001 0.99970198 2.3509598e-38
0.73039061 0.010939121 0.99969614 2.3509598e-38
0.75022835 0.0097232731 0.99969041 2.3509598e-38
0.76868159 0.0083616804 0.99968517 2.3509598e-38
0.79126084 0.0087889303 0.99967873 2.3509598e-38
0.80766565 0.011223529 0.99967408 2.3509598e-38
0.83217573 0.009769599 0.99966705 2.3509598e-38
0.84688234 0.0058138371 0.99966288 2.3509598e-38
0.86849409 0.012322206 0.99965668 2.3509598e-38
0.88554436 0.007373333 0.99965179 2.3509598e-38
0.91076326 0.010299683 0.99964464 2.3509598e-38
0.92379421 0.011333466 0.99964082 2.3509598e-38
0.94979233 0.010016658 0.99963343 2.3509598e-38
0.96859288 0.010912419 0.99962807 2.3509598e-38
0.98989844 0.0089201629 0.99962199 2.3509598e-38
-0.99059916 0.029774537 1.0001878 2.3509598e-38
-0.96541971 0.030032158 1.0001805 2.3509598e-38
-0.94909537 0.028471511 1.000176 2.3509598e-38
-0.93063235 0.031652927 1.0001706 2.3509598e-38
-0.9078396 0.029081982 1.000164 2.3509598e-38
-0.89088261 0.028795719 1.0001593 2.3509598e-38
-0.86879325 0.030017709 1.0001529 2.3509598e-38
-0.84917903 0.030871583 1.0001473 2.3509598e-38
-0.82841104 0.032070637 1.0001414 2.3509598e-38
-0.80993313 0.029414911 1.0001361 2.3509598e-38
-0.78926432 0.029918831 1.0001302 2.3509598e-38
-0.76898873 0.030718898 1.0001245 2.3509598e-38
-0.74864227 0.032332595 1.0001186 2.3509598e-38
-0.72797382 0.027124247 1.0001128 2.3509598e-38
-0.71155703 0.027355945 1.000108 2.3509598e-38
-0.68840992 0.030811448 1.0001013 2.3509598e-38
-0.66781867 0.032500587 1.0000956 2.3509598e-38
-0.64760733 0.029067993 1.0000898 2.3509598e-38
-0.63202745 0.029768333 1.0000854 2.3509598e-38
-0.61372828 0.026771665 1.0000801 2.3509598e-38
-0.59154868 0.028143883 1.0000737 2.3509598e-38
-0.5686304 0.027877999 1.0000672 2.3509598e-38
-0.55202246 0.029784441 1.0000625 2.3509598e-38
-0.5320546 0.0284006 1.0000567 2.3509598e-38
-0.51266855 0.030855954 1.0000513 2.3509598e-38
-0.48822352 0.031266559 1.0000442 2.3509598e-38
-0.47028992 0.037302613 1.0000391 2.3509598e-38
-0.44990104 0.033539094 1.0000333 2.3509598e-38
-0.43348849 0.030813277 1.0000286 2.3509598e-38
-0.41128916 0.032683294 1.0000222 2.3509598e-38
-0.38871112 0.031129075 1.0000157 2.3509598e-38
-0.36785111 0.031176234 1.0000098 2.3509598e-38
-0.34829599 0.028811073 1.0000043 2.3509598e-38
-0.32917753 0.030063109 0.99999881 2.3509598e-38
-0.31186891 0.02807444 0.99999386 2.3509598e-38
-0.2886368 0.034091353 0.99998719 2.3509598e-38
-0.27248764 0.027462143 0.9999826 2.3509598e-38
-0.24893874 0.029449634 0.99997586 2.3509598e-38
-0.23061401 0.028470373 0.99997061 2.3509598e-38
-0.20877542 0.031057119 0.99996442 2.3509598e-38
-0.19361205 0.030727524 0.99996006 2.3509598e-38
-0.1690302 0.028801044 0.99995303 2.3509598e-38
-0.14704122 0.02913481 0.99994677 2.3509598e-38
-0.13199277 0.027429854 0.99994248 2.3509598e-38
-0.10617669 0.024690628 0.99993509 2.3509598e-38
-0.092732534 0.027451675 0.99993122 2.3509598e-38
-0.071474522 0.027888829 0.9999252 2.3509598e-38
-0.049908627 0.030319728 0.999919 2.3509598e-38
-0.033283439 0.030781746 0.99991429 2.3509598e-38
-0.014317777 0.03108561 0.99990886 2.3509598e-38
0.011514116 0.031542823 0.99990141 2.3509598e-38
0.031279057 0.030880345 0.99989581 2.3509598e-38
0.05372148 0.027961891 0.99988937 2.3509598e-38
0.067909032 0.029968264 0.99988532 2.3509598e-38
0.089320503 0.031190079 0.99987924 2.3509598e-38
0.11217471 0.028873062 0.99987268 2.3509598e-38
0.13089356 0.025911331 0.99986732 2.3509598e-38
0.15449186 0.030461449 0.99986064 2.3509598e-38
0.16821854 0.031298798 0.99985671 2.3509598e-38
0.19150515 0.026040746 0.99985003 2.3509598e-38
0.20790179 0.032159328 0.99984539 2.3509598e-38
0.23145728 0.029935658 0.99983859 2.3509598e-38
0.24668898 0.029043794 0.9998343 2.3509598e-38
0.27253401 0.026993811 0.99982691 2.3509598e-38
0.29089096 0.029833898 0.99982166 2.3509598e-38
0.30835295 0.029657047 0.99981666 2.3509598e-38
0.32960171 0.03159387 0.99981058 2.3509598e-38
0.35090503 0.030555343 0.9998045 2.3509598e-38
0.37130615 0.029742399 0.99979866 2.3509598e-38
0.39369664 0.029870458 0.99979234 2.3509598e-38
0.41329026 0.030670226 0.99978673 2.3509598e-38
0.42851955 0.032310545 0.99978232 2.3509598e-38
0.45010841 0.029723326 0.99977612 2.3509598e-38
0.47191367 0.03147459 0.99976993 2.3509598e-38
0.49292111 0.033514842 0.99976397 2.3509598e-38
0.50869429 0.030506829 0.99975944 2.3509598e-38
0.53163511 0.027831685 0.99975288 2.3509598e-38
0.55022293 0.028153148 0.99974751 2.3509598e-38
0.56878245 0.028046418 0.99974227 2.3509598e-38
0.59293437 0.032164764 0.99973536 2.3509598e-38
0.61268747 0.031076618 0.99972975 2.3509598e-38
0.63124669 0.029112658 0.99972439 2.3509598e-38
0.64721984 0.027227879 0.99971986 2.3509598e-38
0.67197543 0.03055644 0.99971282 2.3509598e-38
0.68741155 0.028732458 0.99970841 2.3509598e-38
0.7077316 0.031910229 0.99970257 2.3509598e-38
0.73094279 0.029934017 0.9996959 2.3509598e-38
0.75061554 0.028707029 0.99969029 2.3509598e-38
0.76633525 0.028315187 0.99968588 2.3509598e-38
0.79097158 0.030964851 0.99967885 2.3509598e-38
0.8114149 0.028698012 0.99967301 2.3509598e-38
0.83000326 0.029343341 0.99966764 2.3509598e-38
0.84715736 0.026990678 0.99966276 2.3509598e-38
0.86877924 0.02966404 0.99965656 2.3509598e-38
0.88796717 0.028633118 0.99965107 2.3509598e-38
0.91189337 0.030542517 0.99964428 2.3509598e-38
0.9326874 0.027277514 0.99963832 2.3509598e-38
0.94965684 0.029713199 0.99963343 2.3509598e-38
0.96830225 0.027716842 0.99962819 2.3509598e-38
0.99224734 0.030972227 0.99962127 2.3509598e-38
-0.9891448 0.047320057 1.0001874 2.3509598e-38
-0.97619045 0.05268538 1.0001836 2.3509598e-38
-0.94839382 0.051055569 1.0001757 2.3509598e-38
-0.92780584 0.048539925 1.0001698 2.3509598e-38
-0.91063595 0.050113346 1.0001649 2.3509598e-38
-0.89048254 0.048508842 1.0001591 2.3509598e-38
-0.8729704 0.046944749 1.0001541 2.3509598e-38
-0.8509236 0.048521567 1.0001478 2.3509598e-38
-0.82843786 0.050432969 1.0001414 2.3509598e-38
-0.81292939 0.047944367 1.000137 2.3509598e-38
-0.79032236 0.05181396 1.0001305 2.3509598e-38
-0.77078831 0.049309254 1.0001249 2.3509598e-38
-0.75075686 0.050046682 1.0001192 2.3509598e-38
-0.73029321 0.049514122 1.0001134 2.3509598e-38
-0.71331131 0.051336341 1.0001085 2.3509598e-38
-0.68987685 0.050211433 1.0001018 2.3509598e-38
-0.66977835 0.048971441 1.0000961 2.3509598e-38
-0.65127355 0.04931185 1.0000908 2.3509598e-38
-0.63085884 0.052978199 1.0000849 2.3509598e-38
-0.60622013 0.045078915 1.000078 2.3509598e-38
-0.58939117 0.051390745 1.0000732 2.3509598e-38
-0.57193518 0.046684787 1.0000682 2.3509598e-38
-0.55027258 0.050607603 1.000062 2.3509598e-38
-0.53220671 0.048264503 1.0000567 2.3509598e-38
-0.50905204 0.048725199 1.0000502 2.3509598e-38
-0.49402016 0.049985349 1.0000459 2.3509598e-38
-0.4733547 0.048205316 1.0000401 2.3509598e-38
-0.45060459 0.048581094 1.0000335 2.3509598e-38
-0.4315297 0.050669845 1.000028 2.3509598e-38
-0.41256896 0.050574817 1.0000226 2.3509598e-38
-0.38736719 0.049557414 1.0000155 2.3509598e-38
-0.37209934 0.049183156 1.000011 2.3509598e-38
-0.3508108 0.049580481 1.000005 2.3509598e-38
-0.32879204 0.050540227 0.99999869 2.3509598e-38
-0.31058905 0.051810063 0.9999935 2.3509598e-38
-0.28800079 0.051047292 0.99998701 2.3509598e-38
-0.26566726 0.049230278 0.99998063 2.3509598e-38
-0.25160673 0.051198266 0.99997663 2.3509598e-38
-0.22901353 0.050528243 0.9999702 2.3509598e-38
-0.21111076 0.050956067 0.99996507 2.3509598e-38
-0.1916863 0.049603339 0.99995953 2.3509598e-38
-0.17227547 0.046111774 0.99995399 2.3509598e-38
-0.15376729 0.053811394 0.99994868 2.3509598e-38
-0.12918049 0.048306584 0.99994165 2.3509598e-38
-0.10955365 0.046445429 0.99993604 2.3509598e-38
-0.09006837 0.048818693 0.9999305 2.3509598e-38
-0.070435584 0.051318068 0.9999249 2.3509598e-38
-0.048419882 0.048635196 0.99991858 2.3509598e-38
-0.030413931 0.051730514 0.99991345 2.3509598e-38
-0.0094236955 0.048305959 0.99990743 2.3509598e-38
0.0096145989 0.051436823 0.99990201 2.3509598e-38
0.031882495 0.051046681 0.99989569 2.3509598e-38
0.050468203 0.047991753 0.99989033 2.3509598e-38
0.072616428 0.052002728 0.99988401 2.3509598e-38
0.089264974 0.05311428 0.99987924 2.3509598e-38
0.10841718 0.051861644 0.99987376 2.3509598e-38
0.13004403 0.053718526 0.99986756 2.3509598e-38
0.14852405 0.048802178 0.99986231 2.3509598e-38
0.17504783 0.044998527 0.9998548 2.3509598e-38
0.18740295 0.049485553 0.99985123 2.3509598e-38
0.2099926 0.051693823 0.99984479 2.3509598e-38
0.22869448 0.050076138 0.99983943 2.3509598e-38
0.25169128 0.052924376 0.99983287 2.3509598e-38
0.27068031 0.046310984 0.99982738 2.3509598e-38
0.29005122 0.048297882 0.9998219 2.3509598e-38
0.31107262 0.049981039 0.99981594 2.3509598e-38
0.33057702 0.051427007 0.99981034 2.3509598e-38
0.35041183 0.051646233 0.99980462 2.3509598e-38
0.37201667 0.050153576 0.99979854 2.3509598e-38
0.39320943 0.054463319 0.99979246 2.3509598e-38
0.41471788 0.048112012 0.99978626 2.3509598e-38
0.43132204 0.049287848 0.99978149 2.3509598e-38
0.44994426 0.048619628 0.99977624 2.3509598e-38
0.46997449 0.046695489 0.99977052 2.3509598e-38
0.49056777 0.048667561 0.99976456 2.3509598e-38
0.50645405 0.048388243 0.99976003 2.3509598e-38
0.52858388 0.049342632 0.99975371 2.3509598e-38
0.55094332 0.0498343 0.9997474 2.3509598e-38
0.57033616 0.051553831 0.99974179 2.3509598e-38
0.5890829 0.049302738 0.99973643 2.3509598e-38
0.60716015 0.048617803 0.9997313 2.3509598e-38
0.62729555 0.052122869 0.99972558 2.3509598e-38
0.64909947 0.052823 0.99971938 2.3509598e-38
0.67157143 0.049968243 0.99971294 2.3509598e-38
0.69199127 0.053506374 0.9997071 2.3509598e-38
0.71075881 0.050505877 0.99970174 2.3509598e-38
0.73119092 0.051479749 0.9996959 2.3509598e-38
0.74916929 0.050015055 0.99969077 2.3509598e-38
0.77292764 0.049416624 0.99968398 2.3509598e-38
0.79197317 0.045196261 0.99967849 2.3509598e-38
0.81060785 0.049894493 0.99967325 2.3509598e-38
0.82787567 0.050794233 0.99966824 2.3509598e-38
0.85312474 0.053405549 0.99966109 2.3509598e-38
0.87026316 0.048992969 0.9996562 2.3509598e-38
0.89003897 0.046620131 0.99965048 2.3509598e-38
0.90868908 0.046956182 0.99964511 2.3509598e-38
0.92890435 0.049399376 0.99963939 2.3509598e-38
0.94983327 0.047150511 0.99963343 2.3509598e-38
0.96909273 0.049620766 0.99962795 2.3509598e-38
0.9912765 0.052492708 0.99962163 2.3509598e-38
-0.99008685 0.071209252 1.0001876 2.3509598e-38
-0.97126043 0.070496298 1.0001822 2.3509598e-38
-0.95054406 0.068622775 1.0001763 2.3509598e-38
-0.92969584 0.07179635 1.0001704 2.3509598e-38
-0.9082014 0.07185626 1.0001643 2.3509598e-38
-0.89113355 0.071706399 1.0001593 2.3509598e-38
-0.87239993 0.072955295 1.000154 2.3509598e-38
-0.85034645 0.070448831 1.0001476 2.3509598e-38
-0.83203351 0.069525637 1.0001425 2.3509598e-38
-0.81076747 0.071346998 1.0001364 2.3509598e-38
-0.78868824 0.073037863 1.0001301 2.3509598e-38
-0.77252913 0.06999997 1.0001254 2.3509598e-38
-0.75057781 0.070593759 1.0001192 2.3509598e-38
-0.72896981 0.069865018 1.000113 2.3509598e-38
-0.70755208 0.072670661 1.0001068 2.3509598e-38
-0.68851429 0.073797159 1.0001014 2.3509598e-38
-0.67127466 0.069684364 1.0000966 2.3509598e-38
-0.64812338 0.069426231 1.0000899 2.3509598e-38
-0.6330424 0.06935823 1.0000856 2.3509598e-38
-0.61122841 0.070312098 1.0000794 2.3509598e-38
-0.58978474 0.069041349 1.0000732 2.3509598e-38
-0.57156605 0.070823103 1.0000679 2.3509598e-38
-0.54798812 0.071055934 1.0000613 2.3509598e-38
-0.53236908 0.070709519 1.0000567 2.3509598e-38
-0.51047558 0.070613809 1.0000505 2.3509598e-38
-0.49112421 0.067682534 1.0000451 2.3509598e-38
-0.47071773 0.068999089 1.0000392 2.3509598e-38
-0.45219365 0.072894908 1.0000339 2.3509598e-38
-0.42922342 0.069447517 1.0000274 2.3509598e-38
-0.40926012 0.071382001 1.0000217 2.3509598e-38
-0.38722482 0.069615893 1.0000154 2.3509598e-38
-0.36955351 0.071035191 1.0000103 2.3509598e-38
-0.34937963 0.069525242 1.0000045 2.3509598e-38
-0.33119932 0.068196185 0.99999934 2.3509598e-38
-0.31089154 0.073247649 0.99999356 2.3509598e-38
-0.28947586 0.070074633 0.99998742 2.3509598e-38
-0.27107012 0.071423754 0.99998218 2.3509598e-38
-0.24938668 0.070342809 0.99997598 2.3509598e-38
-0.22829397 0.07066711 0.99996996 2.3509598e-38
-0.209224 0.072789989 0.99996454 2.3509598e-38
-0.18632938 0.072266579 0.99995798 2.3509598e-38
-0.16614141 0.068383873 0.9999522 2.3509598e-38
-0.1489341 0.068106368 0.99994731 2.3509598e-38
-0.13026096 0.070183277 0.99994195 2.3509598e-38
-0.10923217 0.071923122 0.99993598 2.3509598e-38
-0.087153085 0.073167272 0.99992967 2.3509598e-38
-0.071249418 0.069829851 0.99992508 2.3509598e-38
-0.052685071 0.069260336 0.99991983 2.3509598e-38
-0.027700925 0.06798327 0.99991268 2.3509598e-38
-0.0067423452 0.07302735 0.99990666 2.3509598e-38
0.0065236608 0.070235014 0.99990284 2.3509598e-38
0.029493112 0.070959188 0.99989629 2.3509598e-38
0.051430792 0.073263809 0.99989009 2.3509598e-38
0.069069408 0.070282035 0.99988496 2.3509598e-38
0.091746926 0.069263086 0.99987853 2.3509598e-38
0.11149962 0.069481038 0.99987292 2.3509598e-38
0.13002886 0.074488044 0.99986756 2.3509598e-38
0.15242629 0.068603173 0.99986124 2.3509598e-38
0.16862096 0.073927477 0.99985659 2.3509598e-38
0.19305749 0.070712686 0.99984956 2.3509598e-38
0.21234262 0.069571733 0.99984407 2.3509598e-38
0.22871009 0.071305119 0.99983943 2.3509598e-38
0.24988468 0.071520992 0.99983335 2.3509598e-38
0.27034897 0.067688085 0.9998275 2.3509598e-38
0.29260969 0.06984707 0.99982119 2.3509598e-38
0.30889648 0.071350873 0.99981654 2.3509598e-38
0.3310023 0.071722351 0.99981022 2.3509598e-38
0.34714216 0.070341647 0.99980557 2.3509598e-38
0.37137949 0.070304573 0.99979866 2.3509598e-38
0.39237028 0.072253175 0.9997927 2.3509598e-38
0.4067843 0.068666399 0.99978852 2.3509598e-38
0.43169737 0.071302943 0.99978149 2.3509598e-38
0.45047167 0.069962822 0.99977612 2.3509598e-38
0.4654116 0.072836637 0.99977183 2.3509598e-38
0.49065155 0.069322638 0.99976456 2.3509598e-38
0.51222217 0.062291145 0.99975848 2.3509598e-38
0.52794832 0.069618434 0.99975395 2.3509598e-38
0.55231869 0.064951017 0.99974692 2.3509598e-38
0.5690583 0.066099644 0.99974215 2.3509598e-38
0.59028661 0.071346074 0.99973607 2.3509598e-38
0.61024982 0.071108475 0.99973047 2.3509598e-38
0.62987238 0.068294808 0.99972486 2.3509598e-38
0.65059686 0.068032876 0.9997189 2.3509598e-38
0.67021555 0.06897068 0.9997133 2.3509598e-38
0.68982929 0.069290794 0.9997077 2.3509598e-38
0.71099705 0.072106838 0.99970162 2.3509598e-38
0.72897512 0.068279266 0.99969649 2.3509598e-38
0.74935967 0.069327176 0.99969065 2.3509598e-38
0.7691794 0.071698666 0.99968505 2.3509598e-38
0.78951865 0.069734946 0.99967921 2.3509598e-38
0.81263715 0.072218612 0.99967265 2.3509598e-38
0.82940561 0.070209585 0.99966776 2.3509598e-38
0.84877872 0.07035365 0.99966228 2.3509598e-38
0.86853904 0.065573812 0.99965668 2.3509598e-38
0.88859874 0.071067765 0.99965096 2.3509598e-38
0.9079845 0.064812846 0.99964535 2.3509598e-38
0.9315654 0.064704657 0.99963868 2.3509598e-38
0.94738537 0.072775096 0.99963415 2.3509598e-38
0.9698928 0.069728643 0.99962771 2.3509598e-38
0.99130929 0.070861459 0.99962163 2.3509598e-38
-0.98684198 0.087290563 1.0001867 2.3509598e-38
-0.97166544 0.089647509 1.0001824 2.3509598e-38
-0.95243388 0.086776853 1.0001769 2.3509598e-38
-0.92739248 0.0866827 1.0001698 2.3509598e-38
-0.91205335 0.092223488 1.0001652 2.3509598e-38
-0.88862252 0.088941664 1.0001585 2.3509598e-38
-0.86992055 0.091433138 1.0001533 2.3509598e-38
-0.84875858 0.08941412 1.0001472 2.3509598e-38
-0.8266536 0.088792011 1.0001409 2.3509598e-38
-0.81032234 0.091562457 1.0001363 2.3509598e-38
-0.78650934 0.093812041 1.0001295 2.3509598e-38
-0.76999557 0.093735874 1.0001247 2.3509598e-38
-0.74836922 0.09320455 1.0001185 2.3509598e-38
-0.72758365 0.091626577 1.0001125 2.3509598e-38
-0.70700794 0.088944584 1.0001067 2.3509598e-38
-0.6929161 0.089646578 1.0001028 2.3509598e-38
-0.67163837 0.089498699 1.0000966 2.3509598e-38
-0.64830333 0.090702727 1.0000899 2.3509598e-38
-0.62925112 0.090301849 1.0000845 2.3509598e-38
-0.60882467 0.089176439 1.0000787 2.3509598e-38
-0.58667415 0.091232307 1.0000724 2.3509598e-38
-0.5678907 0.089976713 1.000067 2.3509598e-38
-0.54711831 0.090569578 1.000061 2.3509598e-38
-0.52944708 0.088516571 1.000056 2.3509598e-38
-0.50956172 0.089350887 1.0000503 2.3509598e-38
-0.4907504 0.091349408 1.0000449 2.3509598e-38
-0.47243467 0.089367658 1.0000397 2.3509598e-38
-0.44674653 0.091790259 1.0000324 2.3509598e-38
-0.42764002 0.087756209 1.0000269 2.3509598e-38
-0.40700126 0.093000792 1.000021 2.3509598e-38
-0.39021802 0.089814112 1.0000162 2.3509598e-38
-0.36948761 0.090647057 1.0000103 2.3509598e-38
-0.35020223 0.088043146 1.0000048 2.3509598e-38
-0.32994169 0.091722704 0.99999899 2.3509598e-38
-0.30909666 0.089850545 0.99999303 2.3509598e-38
-0.28834751 0.088233404 0.99998713 2.3509598e-38
-0.27161604 0.08708328 0.99998236 2.3509598e-38
-0.24970514 0.08897239 0.9999761 2.3509598e-38
-0.23085032 0.08924906 0.99997067 2.3509598e-38
-0.21175791 0.091828905 0.99996525 2.3509598e-38
-0.18834394 0.090445086 0.99995857 2.3509598e-38
-0.16965295 0.094614983 0.99995321 2.3509598e-38
-0.1500497 0.089384742 0.99994761 2.3509598e-38
-0.12909684 0.088607617 0.99994165 2.3509598e-38
-0.10929954 0.088472575 0.99993598 2.3509598e-38
-0.086696766 0.092767715 0.99992955 2.3509598e-38
-0.069917917 0.087813906 0.99992472 2.3509598e-38
-0.052742504 0.085030317 0.99991983 2.3509598e-38
-0.028759664 0.089868784 0.99991298 2.3509598e-38
-0.009650209 0.086423211 0.99990749 2.3509598e-38
0.0085057933 0.09131977 0.99990237 2.3509598e-38
0.026886433 0.090215683 0.99989712 2.3509598e-38
0.048395347 0.090366758 0.99989092 2.3509598e-38
0.071074896 0.086986743 0.99988449 2.3509598e-38
0.089236274 0.091512918 0.99987924 2.3509598e-38
0.11132845 0.08984983 0.99987292 2.3509598e-38
0.12946214 0.089327723 0.9998678 2.3509598e-38
0.14920579 0.089163646 0.99986207 2.3509598e-38
0.17021723 0.090402089 0.99985611 2.3509598e-38
0.1887583 0.09026067 0.99985087 2.3509598e-38
0.20804836 0.08668264 0.99984527 2.3509598e-38
0.22833322 0.088875562 0.99983954 2.3509598e-38
0.24814434 0.087357044 0.99983382 2.3509598e-38
0.26860812 0.088114262 0.99982798 2.3509598e-38
0.29109514 0.09121871 0.99982154 2.3509598e-38
0.30994606 0.090462245 0.99981618 2.3509598e-38
0.32977995 0.087786868 0.99981058 2.3509598e-38
0.3499538 0.088731036 0.99980474 2.3509598e-38
0.368449 0.090831958 0.99979949 2.3509598e-38
0.38720715 0.088957071 0.99979413 2.3509598e-38
0.40793771 0.08658012 0.99978817 2.3509598e-38
0.430428 0.090195321 0.99978185 2.3509598e-38
0.45102823 0.089873157 0.99977589 2.3509598e-38
0.46889657 0.092354968 0.99977076 2.3509598e-38
0.49181145 0.089024723 0.9997642 2.3509598e-38
0.51259339 0.086802632 0.99975836 2.3509598e-38
0.53000653 0.088281237 0.99975336 2.3509598e-38
0.54816759 0.090514146 0.99974811 2.3509598e-38
0.56915838 0.092013285 0.99974215 2.3509598e-38
0.58949208 0.090548895 0.99973631 2.3509598e-38
0.61109996 0.091368355 0.99973023 2.3509598e-38
0.62698257 0.084503941 0.9997257 2.3509598e-38
0.64947742 0.091904163 0.99971926 2.3509598e-38
0.66929084 0.090055153 0.99971354 2.3509598e-38
0.69391191 0.095081381 0.99970651 2.3509598e-38
0.70763075 0.091360286 0.99970257 2.3509598e-38
0.7320928 0.088915028 0.99969566 2.3509598e-38
