# .PCD v0.7 - Point Cloud Data file format
VERSION 0.7
FIELDS x y z rgb
SIZE 4 4 4 4
TYPE F F F F
COUNT 1 1 1 1
WIDTH 1041
HEIGHT 1
VIEWPOINT 0 0 0 1 0 0 0
POINTS 1041
DATA ascii
-1.2004241 0.72820759 2.835 2.3509886e-38
-1.1954534 0.73317832 2.835 2.3509886e-38
-1.2053947 0.75554645 2.835 2.3509886e-38
-1.1954533 0.74809033 2.835 2.3509886e-38
-1.20788 0.77542919 2.835 2.3509886e-38
-1.1879973 0.83010685 2.8349996 1.5404236e-38
-1.1699785 0.8282429 2.835 1.4758146e-38
-1.1358049 0.87732852 2.835 8.4844993e-39
-1.1358049 0.88975525 2.835 7.5647192e-39
-1.1407757 0.90466738 2.835 7.9324283e-39
-1.1358049 0.90466738 2.835 7.287419e-39
-1.3674864 0.21103807 2.8590004 1.1532021e-38
-1.3501089 0.20468852 2.8590002 1.3930188e-38
-1.3283867 0.20468852 2.8590002 1.4758871e-38
-1.3885401 0.2295137 2.8590007 1.0238399e-38
-1.371622 0.22870809 2.8590002 9.9614594e-39
-1.3910466 0.25457764 2.8590002 1.1716764e-38
-1.3890414 0.27119139 2.8590007 1.171605e-38
-1.3709953 0.29826042 2.8590002 1.060935e-38
-1.3671395 0.31175637 2.8590007 1.1254363e-38
-1.355957 0.31580514 2.8590002 1.3097907e-38
-1.355957 0.33084348 2.8590002 1.337522e-38
-1.3542861 0.3525655 2.8590002 1.3928035e-38
-1.350337 0.21529107 2.8829999 1.1900798e-38
-1.3291473 0.21539322 2.8829999 1.2822761e-38
-1.3073131 0.21672712 2.8829999 1.3560678e-38
-1.2905058 0.21078765 2.8830001 1.4667755e-38
-1.3530176 0.22999613 2.8830001 9.4090059e-39
-1.3370105 0.22494127 2.8830001 9.9614468e-39
-1.3027161 0.21669446 2.9080002 1.4574115e-38
-1.2925189 0.21669446 2.9080005 1.4666672e-38
-1.2466307 0.21669446 2.9080005 1.5313845e-38
-1.2272555 0.21567474 2.9080002 1.5406404e-38
-1.3052654 0.22179316 2.9080002 1.3744349e-38
-1.1089658 0.51369333 2.9080002 1.0059419e-38
-1.2239213 0.22369991 2.9330001 1.5128736e-38
-1.2084937 0.22369991 2.9330001 1.5496441e-38
-1.1879237 0.22369991 2.9330001 1.5588993e-38
-1.1030719 0.39597455 2.9330001 8.8594279e-39
-1.1056432 0.41140211 2.9330001 9.5037239e-39
-1.1030719 0.43197224 2.9330001 1.1626023e-38
-1.1056433 0.44997108 2.9330001 1.2547617e-38
-1.1104184 0.46907192 2.9330003 1.1072856e-38
-1.1102715 0.4859688 2.9330003 1.3376306e-38
-1.2058287 0.23079303 2.9580002 1.4943267e-38
-1.1902697 0.2333862 2.9580002 1.4758878e-38
-1.122847 0.24116574 2.9580002 1.4296453e-38
-1.094322 0.3111816 2.9580002 1.171605e-38
-1.1021016 0.33106264 2.9580002 9.2274831e-39
-1.0969151 0.33192703 2.9580002 1.2638011e-38
-1.1021016 0.3500793 2.9580002 1.0609706e-38
-1.0969151 0.35526565 2.9580002 1.3930548e-38
-1.1021014 0.36045203 2.9580002 1.1439834e-38
-1.0969151 0.36045203 2.9580002 1.4482272e-38
-1.1124742 0.38897699 2.9580002 8.4906538e-39
-1.1176605 0.41231561 2.9580002 9.2274957e-39
-1.114203 0.43306106 2.9580002 1.0704426e-38
-1.1013248 0.23805358 2.9840002 1.4849624e-38
-1.0851058 0.23177524 2.9840004 1.5403521e-38
-1.1316701 0.24747108 2.9840002 1.3559964e-38
-1.1096958 0.2453783 2.9840002 1.3743278e-38
-1.0889583 0.24946873 2.9840004 1.4113501e-38
-1.0916083 0.27019268 2.9840002 1.2822045e-38
-1.1065567 0.29560497 2.9840002 9.6902718e-39
-1.1065567 0.30606887 2.9840002 1.0887007e-38
-0.84417212 -0.11422791 3.1780002 7.3721471e-40
-0.60976785 0.26921827 3.2080002 1.6580836e-39
-0.5427829 0.43028903 3.2080002 1.656999e-39
-0.53434587 0.44153842 3.2080002 1.2907388e-39
-0.68411386 0.019870527 3.2380002 6.4536941e-40
-0.66839212 0.012883089 3.2380002 1.0145121e-39
-0.66140467 0.025547819 3.2380002 1.2907388e-39
-0.62166369 0.11070722 3.2380004 1.841742e-39
-0.62166369 0.1277391 3.2380004 1.5676718e-39
-0.60974133 0.12887456 3.2380006 1.7502736e-39
-0.58192259 0.23560767 3.2380002 1.5673257e-39
-0.5694325 0.23333676 3.2380002 1.9346649e-39
-0.58192259 0.24128497 3.2380002 1.5673257e-39
-0.56930643 0.24822386 3.2380004 1.8428308e-39
-0.66200519 -0.020060763 3.2690001 2.5804211e-39
-0.65054196 -0.024154795 3.2690005 1.2921878e-39
-0.63678598 -0.024646081 3.2690003 5.5317378e-40
-0.66343808 -0.0071645584 3.2690001 2.7694842e-40
-0.6505419 -0.008597469 3.2690005 9.2123603e-40
-0.63621283 -0.0085974708 3.2690005 1.3807807e-39
-0.6505419 0.0085974699 3.2690005 1.29002e-39
-0.63621283 0.0085974708 3.2690005 1.1985432e-39
-0.64672083 0.021971313 3.2690001 1.4733322e-39
-0.63525754 0.026747687 3.2690005 1.106349e-39
-0.6253227 0.049865328 3.2690003 1.2903717e-39
-0.61615199 0.051584817 3.2690001 1.6566445e-39
-0.62302995 0.067060269 3.2690003 1.3818554e-39
-0.61615199 0.068779759 3.2690001 1.6573563e-39
-0.62188363 0.094572172 3.2690001 1.7495464e-39
-0.61471909 0.090273432 3.2690001 1.7495464e-39
-0.62188363 0.10316963 3.2690001 1.841742e-39
-0.61137563 0.10603546 3.2690005 1.7495464e-39
-0.59609127 0.11463293 3.2690001 1.6584297e-39
-0.59250897 0.1296785 3.2690005 1.8417448e-39
-0.58667499 0.14533818 3.2690005 1.841742e-39
-0.57087201 0.15074234 3.2690008 1.7506268e-39
-0.567433 0.16621774 3.2690001 1.9342963e-39
-0.55095452 0.16836712 3.2690005 1.8413861e-39
-0.54355115 0.18723381 3.2690005 1.8417518e-39
-0.52903098 0.2304122 3.2690008 2.0264976e-39
-0.54164058 0.25219247 3.2690001 2.118689e-39
-0.5301773 0.24932663 3.2690005 1.842821e-39
-0.52965623 0.26860583 3.2690008 1.9339432e-39
-0.51011658 0.26938739 3.2690008 1.9346593e-39
-0.52444565 0.2837165 3.2690001 2.118689e-39
-0.50888836 0.28617293 3.2690005 2.0261374e-39
-0.63163835 -0.04532367 3.3000002 4.6277041e-40
-0.62943405 -0.029756576 3.2999997 9.208759e-40
-0.61158019 -0.030087201 3.2999997 1.2889367e-39
-0.62778097 -0.0086789997 3.2999997 1.3804135e-39
-0.613316 -0.0086790007 3.3 1.3804177e-39
-0.61235166 0.009643333 3.3 1.564802e-39
-0.61042309 0.028930005 3.2999997 1.656999e-39
-0.59113628 0.033751667 3.2999997 1.4736811e-39
-0.57570702 0.037609 3.3000002 1.7495464e-39
-0.59017205 0.049180996 3.2999997 1.4736839e-39
-0.56992102 0.049181003 3.2999997 1.6573507e-39
-0.59017205 0.069431998 3.2999995 1.4740427e-39
-0.56992102 0.069431998 3.2999997 1.5655194e-39
-0.59017205 0.089682996 3.2999997 1.4744e-39
-0.57157415 0.088856429 3.3 1.7495464e-39
-0.5496701 0.089682996 3.2999997 1.6577165e-39
-0.56992102 0.109934 3.2999997 1.8417434e-39
-0.54966998 0.10993399 3.2999995 1.7499107e-39
-0.56992102 0.13018499 3.2999997 1.8413875e-39
-0.54967004 0.13018498 3.2999997 1.8413861e-39
-0.56992102 0.141757 3.3000002 1.6577221e-39
-0.54677695 0.14859499 3.2999997 1.7502708e-39
-0.529419 0.150436 3.2999997 1.8424609e-39
-0.54330546 0.16952981 3.3 1.841742e-39
-0.529419 0.170687 3.2999997 1.7506254e-39
-0.52652597 0.18225899 3.3000002 2.026492e-39
-0.50916803 0.190938 3.2999995 2.026492e-39
-0.523633 0.216975 3.3000002 2.118689e-39
-0.50916803 0.211189 3.2999997 1.7509897e-39
-0.523633 0.22276101 3.3000002 2.118689e-39
-0.50916809 0.22854702 3.2999997 2.1183303e-39
-0.49084568 0.22661833 3.3 1.8431811e-39
-0.50916809 0.24474779 3.2999997 2.0268437e-39
-0.48313099 0.245905 3.3000002 1.7520645e-39
-0.48313099 0.26615599 3.3000002 2.3027201e-39
-0.58730793 -0.094475739 3.3330002 3.5949373e-39
-0.58146405 -0.064282462 3.3330002 1.1960194e-39
-0.5726983 -0.064282462 3.3330002 1.1041826e-39
-0.5726983 -0.049672812 3.3330002 1.1963754e-39
-0.56977636 -0.0292193 3.3330002 1.2889269e-39
-0.55107605 -0.0081814034 3.3330002 1.380775e-39
-0.54932284 0.0087657897 3.3330002 1.4729623e-39
-0.54932278 0.0292193 3.3330002 1.4736797e-39
-0.52886939 0.049672805 3.3330002 1.6573507e-39
-0.52886933 0.070126325 3.3330002 1.6573507e-39
-0.5113377 0.090579838 3.3330002 1.7491904e-39
-0.5108065 0.11023647 3.3330002 1.658071e-39
-0.51133776 0.12564299 3.3330002 1.841742e-39
-0.3272562 0.52886939 3.3330002 1.7495464e-39
-0.32433423 0.54055703 3.3330002 1.841742e-39
-0.20818752 0.64939892 3.3330002 1.9339376e-39
-0.18781561 0.60671324 3.3650005 1.7495492e-39
0.031269822 1.071434 3.3650002 1.0979232e-38
0.03048316 1.0872327 3.365 1.0978874e-38
0.033924807 1.1077187 3.3650002 1.0979591e-38
0.044249751 1.1062437 3.3650002 1.1442004e-38
0.032449815 1.1239437 3.3650002 1.0978874e-38
0.044249751 1.1534435 3.3650002 1.1533849e-38
0.079649553 1.1652434 3.3650002 2.0376699e-38
0.089482829 1.1849101 3.3650005 2.3509886e-38
-0.41180697 -0.12693906 3.3990002 6.3593194e-39
0.034764219 0.9896214 3.3990002 1.0611171e-38
0.035757482 1.0101489 3.3990002 1.0794844e-38
0.050656427 1.0101489 3.3990002 1.1533492e-38
0.035757482 1.0310073 3.3990002 1.1071069e-38
0.05065643 1.0310073 3.3990002 1.1810076e-38
0.035757482 1.0459063 3.3990002 1.1255823e-38
0.050656427 1.0518658 3.3990002 1.1810796e-38
0.068535171 1.0518658 3.3990002 1.4482673e-38
0.052642956 1.0657716 3.3990002 1.2087746e-38
0.070237912 1.0688933 3.3990004 1.5035843e-38
0.080454335 1.0697446 3.3990002 2.175963e-38
0.071514964 1.0816637 3.3990002 1.5495382e-38
0.080454335 1.0876234 3.3990002 2.1114264e-38
-0.15950862 0.33406523 3.4330001 2.1190365e-39
-0.084268704 0.45444909 3.4330001 3.5873241e-43
-0.086731113 0.47031784 3.4330001 7.1746481e-43
-0.088482134 0.4911662 3.4330003 1.8474719e-40
-0.072230324 0.49056423 3.4330003 3.1328437e-39
-0.072230324 0.50862181 3.4330003 3.2250436e-39
-0.0090287896 0.62900573 3.4330003 9.2184602e-39
-0.00730902 0.6462034 3.4330006 9.1262701e-39
0.021067176 0.7102648 3.4330001 7.010493e-39
0.053570826 0.77226251 3.4330003 9.4129814e-39
0.093297504 1.0503492 3.4330001 2.3509886e-38
0.10533588 1.0653973 3.4330001 2.3509886e-38
-0.31010854 -0.10519369 3.4680002 6.6355434e-39
-0.13073203 0.29490715 3.4680002 1.5655152e-39
-0.06384588 0.33443081 3.4680002 6.8181606e-39
-0.06916637 0.35039228 3.4680002 4.8824083e-39
-0.069926441 0.36787385 3.4680002 4.1469971e-39
-0.088168137 0.38915586 3.4679999 9.2552961e-41
-0.069926441 0.38915583 3.4679999 4.3303093e-39
-0.069926441 0.41043779 3.4680002 4.4221434e-39
-0.071663752 0.42781085 3.4680004 3.7774915e-39
-0.0152014 0.45908228 3.4680002 8.9411404e-39
-0.02736252 0.47124344 3.4680002 7.8344481e-39
-0.0152014 0.47124338 3.4680002 8.9415019e-39
-0.02736252 0.48948506 3.4680002 7.8344481e-39
-0.0152014 0.48948509 3.4680002 9.4003221e-39
-0.02736252 0.50772673 3.4680002 7.8355089e-39
-0.013985288 0.51259124 3.4680002 8.9418635e-39
-0.0060805599 0.52900875 3.4680002 9.2173756e-39
0.00304028 0.53508925 3.4680002 8.0202911e-39
0.011553064 0.55150682 3.4680002 6.5466044e-39
0.01216112 0.56853235 3.4680002 6.454413e-39
0.0082521886 0.59111732 3.4680004 7.1008614e-39
0.036483359 0.61717683 3.4680002 6.9164869e-39
0.05168476 0.61717689 3.4680002 7.1041152e-39
0.030402798 0.62933797 3.4679999 6.7324516e-39
0.051684763 0.62933797 3.4680002 7.1966723e-39
0.06384588 0.63541853 3.4680002 8.1215195e-39
0.05168476 0.65061992 3.4679999 7.2903127e-39
0.06384588 0.65061992 3.4680002 8.4899461e-39
0.051684763 0.67190182 3.4680002 7.6591022e-39
0.066886157 0.66886157 3.4680002 8.6757821e-39
0.069926441 0.68710327 3.4680002 1.180755e-38
0.088168122 0.7144658 3.4680002 2.3509886e-38
0.084114417 0.72257322 3.4680002 2.2680138e-38
-0.22418033 0.0030709633 3.5030003 1.2885682e-39
-0.20984916 0.007165581 3.5030003 1.2885682e-39
-0.19961262 0.0092128906 3.5030003 1.2885682e-39
-0.19522554 0.053083796 3.5030005 1.5651551e-39
-0.19039974 0.07063216 3.5030003 1.6573507e-39
-0.17504491 0.076774083 3.5030003 1.6573507e-39
-0.17504492 0.089057937 3.5030003 1.6573507e-39
-0.17504491 0.11055468 3.5030003 1.7495464e-39
-0.15661913 0.15661913 3.5030003 1.7502554e-39
-0.1504772 0.16890299 3.5030003 1.6577053e-39
-0.13205142 0.17197394 3.5030003 1.1063335e-39
-0.13205144 0.19039974 3.5030003 1.3818386e-39
-0.070632152 0.19039974 3.5030003 3.9622471e-39
-0.13205142 0.21189646 3.5030003 1.4733168e-39
-0.07063216 0.21189646 3.5030003 4.2377522e-39
-0.052206371 0.21189646 3.5030003 8.9382537e-39
-0.07063216 0.23032226 3.5030003 4.3303065e-39
-0.052206378 0.23032223 3.5030003 8.8467896e-39
-0.073088929 0.24629126 3.5030003 2.7640612e-39
-0.052206378 0.2426061 3.5030003 9.1226394e-39
-0.072679475 0.32961673 3.5030003 3.1328465e-39
-0.015354817 0.32859308 3.5030003 9.2155749e-39
-0.015354817 0.34394789 3.5030003 9.3988872e-39
-0.012283853 0.37312204 3.5030003 9.3077663e-39
-0.02763867 0.39001229 3.5030003 7.9262794e-39
-0.0099806311 0.39078006 3.5030003 9.1251757e-39
0.0061419266 0.39615425 3.5030003 6.0856122e-39
-0.02763867 0.40843815 3.5030003 7.6507659e-39
-0.0092128906 0.40843812 3.5030003 8.7578323e-39
0.0084451493 0.40920588 3.5030003 5.8083135e-39
-0.024567707 0.42686391 3.5030003 8.1128175e-39
-0.0092128906 0.42993483 3.5030003 9.1251743e-39
0.0086545339 0.42965573 3.5030005 5.9001574e-39
0.025591362 0.42481661 3.5030003 4.7023331e-39
-0.0092128906 0.4514316 3.5030003 8.7581911e-39
0.0074580535 0.45055419 3.5030005 6.2707322e-39
0.024567707 0.44528967 3.5030003 4.7037708e-39
-0.0061419262 0.46985742 3.5030003 9.1251841e-39
0.0030709633 0.46985742 3.5030003 7.1908878e-39
0.058348302 0.46678644 3.5030003 5.7204451e-39
0.0030709633 0.48828316 3.5030003 7.6511457e-39
0.070632152 0.48828316 3.5030003 8.3944883e-39
0.074141838 0.5084638 3.5030005 1.0146207e-38
0.026410285 0.53496188 3.5030003 5.4417072e-39
0.05527734 0.53434765 3.5030003 6.5498498e-39
0.071399897 0.53204441 3.5030003 9.132419e-39
0.084963322 0.52718204 3.5030003 1.5494991e-38
0.052974116 0.55047011 3.5030003 6.6416867e-39
0.070632152 0.54970247 3.5030003 8.8558378e-39
0.052206375 0.56812823 3.5030003 6.6416923e-39
0.066025712 0.56659275 3.5030003 6.6460293e-39
0.087010622 0.57222283 3.5030003 1.844418e-38
0.10134179 0.57427013 3.5030003 2.3509886e-38
0.051182725 0.5875777 3.5030003 6.6427755e-39
0.07063216 0.58962494 3.5030003 9.0431199e-39
0.088443749 0.58962488 3.5030003 2.0377765e-38
0.10134179 0.58041209 3.5030003 2.3509886e-38
0.069754742 0.60936689 3.5030005 9.5937699e-39
0.084963322 0.60702705 3.5030003 1.9360373e-38
-0.12823763 0.056879595 3.5390003 8.2903059e-40
-0.065152988 0.058947943 3.5390003 5.9880468e-39
-0.055845417 0.058947943 3.5390003 8.661657e-39
-0.11479336 0.068255514 3.5390003 4.6061241e-40
-0.05739668 0.069806769 3.5390003 8.7535037e-39
-0.071358033 0.090748809 3.539 3.5931058e-39
-0.058947943 0.089973181 3.5390003 8.8464224e-39
-0.073130906 0.10947476 3.5390003 2.9484553e-39
-0.049019869 0.11355235 3.5390003 8.4783602e-39
-0.072133668 0.12642783 3.539 3.317242e-39
-0.048089109 0.12772055 3.5390003 8.5701985e-39
0.0031025233 0.17684382 3.5390003 5.7146647e-39
0.0031025233 0.18304887 3.5390003 5.7146647e-39
0.0031025233 0.20786907 3.5390003 5.5317028e-39
-0.0093075708 0.22958672 3.5390003 9.1240981e-39
0.0087434752 0.23043287 3.5390003 3.7796411e-39
0.034127757 0.2388943 3.5390003 2.6743795e-39
-0.0084211351 0.24953152 3.5390003 8.9407845e-39
0.0093075698 0.25130439 3.539 3.7792809e-39
0.034127757 0.24820186 3.5390003 2.6736607e-39
-0.0055845417 0.27116057 3.5390003 8.9407929e-39
0.0093075698 0.26991954 3.539 3.9640295e-39
-0.0085319383 0.28931031 3.539 9.0329829e-39
0.0085319383 0.28775904 3.539 4.2406178e-39
-0.0080665611 0.30901131 3.539 8.848956e-39
0.005170872 0.31025237 3.5390003 5.6235481e-39
0.056465924 0.31459588 3.5390003 3.4112411e-39
-0.0075347 0.33197004 3.5390003 9.124817e-39
0.0031025233 0.33196998 3.5390003 6.4536689e-39
0.058947943 0.33196998 3.5390003 3.5956324e-39
0.07135804 0.33197001 3.539 7.4671131e-39
0.0072392207 0.3526535 3.5390003 5.3469654e-39
0.058947943 0.34748262 3.5390003 3.5963652e-39
0.07213366 0.3498095 3.539 7.8362502e-39
0.0093075708 0.36920023 3.539 4.8870662e-39
0.021717664 0.36609775 3.5390003 3.9636932e-39
0.056879591 0.36713192 3.5390003 4.5168824e-39
0.07135804 0.36920023 3.539 7.10049e-39
0.089197546 0.36997589 3.539 1.493786e-38
0.021717664 0.38781542 3.5390003 3.9640548e-39
0.055845417 0.39091796 3.5390003 4.8881831e-39
0.071358033 0.38781545 3.539 6.7338711e-39
0.089197546 0.38703978 3.539 1.6690289e-38
0.026371447 0.41263559 3.539 4.6094242e-39
0.0499851 0.41401449 3.539 5.072926e-39
0.070117027 0.40767154 3.5390003 7.1962912e-39
0.089973174 0.4043622 3.5390003 1.7151271e-38
0.028956886 0.43228492 3.5390003 4.7030505e-39
0.049640372 0.43125069 3.5390003 5.2573215e-39
0.070582405 0.43047515 3.539 6.8278744e-39
0.086870655 0.43125075 3.5390003 1.6598815e-38
0.043435328 0.44986588 3.5390003 5.4391904e-39
0.072909296 0.44521207 3.5390003 8.5810375e-39
0.087904833 0.44779754 3.5390003 1.6419115e-38
0.046537846 0.468481 3.539 5.6268159e-39
0.065152988 0.5119164 3.5390003 6.0896031e-39
0.0930757 0.52432644 3.5390003 1.991824e-38
-0.05329432 -0.025527531 3.5760005 6.7273593e-39
-0.02978212 -0.02978212 3.5760002 7.0968747e-39
-0.072104082 -0.00940488 3.5760002 3.2250352e-39
-0.047920104 -0.012091989 3.5760005 7.0968551e-39
-0.07132034 0.0086211395 3.5760002 3.6852944e-39
-0.050507683 0.010101538 3.5760002 8.0162918e-39
-0.050159357 0.028214639 3.5760002 7.9255339e-39
-0.049263649 0.048815809 3.5760005 8.0173736e-39
-0.046240658 0.072887823 3.5760002 8.1092189e-39
0.0031349601 0.1253984 3.5760002 4.7952335e-39
0.05329432 0.13480328 3.5760002 1.6573507e-39
-0.00940488 0.14629813 3.5760002 8.6642032e-39
0.0062699202 0.15361303 3.5760002 3.777846e-39
0.05329432 0.1410732 3.5760002 1.7495464e-39
0.0068969126 0.1711688 3.5760002 3.5037688e-39
0.072104082 0.17869273 3.5760002 8.5680601e-39
0.0068969117 0.19248655 3.5760002 3.9629477e-39
0.056429282 0.19436753 3.5760002 2.2108832e-39
0.072104082 0.1874706 3.5760002 8.2921963e-39
0.0867339 0.18705261 3.5760002 9.859508e-39
0.01018862 0.21004233 3.5760002 3.3183084e-39
0.034484562 0.21317728 3.5760002 2.5810993e-39
0.040754478 0.21004231 3.5760002 2.9484371e-39
0.0156748 0.22258216 3.5760002 1.8439126e-39
0.032917082 0.23041955 3.5760002 2.6733005e-39
0.028214639 0.24766183 3.5760002 2.6740194e-39
0.048815805 0.27453294 3.5760005 3.1339227e-39
0.055802286 0.28904331 3.5760002 3.0424432e-39
0.067924134 0.29573125 3.5760002 4.4250147e-39
0.051204346 0.30827105 3.5760002 3.4108698e-39
0.067924134 0.3061811 3.5760002 4.2406318e-39
0.0073926384 -0.0095048202 3.6140001 1.197467e-39
0.0031682733 0.0031682733 3.6140001 3.4094278e-39
0.079206839 0.02851446 3.6140001 8.6616893e-39
0.088078 0.027247149 3.6140001 7.5564179e-39
0.079206832 0.050692372 3.6140001 7.5607241e-39
0.087127522 0.049108237 3.6140001 6.7306075e-39
0.051748466 0.069702014 3.6140001 1.4715245e-39
0.069173969 0.068645924 3.6139998 6.818134e-39
0.085543379 0.079206832 3.6140001 7.1843774e-39
0.052276511 0.093464062 3.6140001 1.3807652e-39
0.063365474 0.091879927 3.6140001 4.3292135e-39
0.051748466 0.11300175 3.6140001 1.4729609e-39
0.063365474 0.11088957 3.6140001 4.1451838e-39
0.048580192 0.1298992 3.6140001 1.7509855e-39
0.06273181 0.12863189 3.6140001 3.5001787e-39
0.065477654 0.14890885 3.6140001 4.8827544e-39
0.085543379 0.15524539 3.6140001 1.0042817e-38
0.072870292 0.17063417 3.6140003 7.9248473e-39
0.088711649 0.16633435 3.6140001 8.6631298e-39
0.085543379 0.18059158 3.6140001 1.0780382e-38
0.086466506 0.0096073896 3.6530004 7.7422413e-39
0.24490678 0.033445418 3.6920002 1.0228998e-38
0.24598566 0.042076495 3.6920002 1.0413385e-38
0.25569561 0.064733066 3.6920002 1.1518648e-38
0.25407729 0.089007966 3.6920002 1.0691777e-38
0.26864222 0.087389641 3.6920002 1.2532804e-38
0.25353783 0.11220398 3.6920002 1.124314e-38
0.26864222 0.11004623 3.6920004 1.2071828e-38
0.25569561 0.12946613 3.6920002 1.151973e-38
0.26864222 0.13270278 3.6920002 1.2625004e-38
0.28725296 0.13351195 3.6919999 1.2807965e-38
0.27187887 0.1456494 3.6920002 1.3178186e-38
0.3108134 0.016358599 3.7320001 1.4466733e-38
0.2541036 0.027264334 3.7320001 1.1887787e-38
0.27155274 0.029445482 3.7320001 1.2624267e-38
0.29036516 0.02862755 3.7320001 1.3360749e-38
0.30999547 0.028627552 3.7320001 1.3913202e-38
0.32390028 0.026173759 3.7320001 1.4466733e-38
0.25285721 0.050945356 3.7320004 1.0875082e-38
0.27155277 0.04580408 3.7320001 1.1886352e-38
0.29036513 0.049893729 3.7320001 1.2255136e-38
0.30950472 0.053001862 3.7320001 1.1980354e-38
0.32390028 0.049075801 3.7320001 1.2810462e-38
0.29211789 0.066836558 3.7320004 1.2349493e-38
0.30590582 0.067070261 3.7320001 1.2901583e-38
0.32717198 0.068706118 3.7320001 1.38203e-38
0.29772651 0.088336438 3.7320001 1.2992335e-38
0.29772651 0.10796677 3.7320001 1.1980715e-38
0.30754167 0.10960262 3.7320001 1.3177816e-38
0.32717198 0.1145102 3.7320001 1.3823172e-38
0.29772651 0.12432536 3.7320001 1.2901591e-38
0.30987865 0.12572753 3.7320004 1.2993429e-38
0.32717198 0.12105364 3.7320001 1.455932e-38
0.3301923 0.03242369 3.7740002 1.3545867e-38
0.34077963 0.033085398 3.7740002 1.3730261e-38
0.34077963 0.049628101 3.7740002 1.2809743e-38
0.34077963 0.069479346 3.7740002 1.336076e-38
0.42018458 0.089330576 3.7740002 1.1888175e-38
0.36063087 0.10256474 3.7740002 1.2993024e-38
0.39140713 -0.0060216482 3.8160005 1.4006488e-38
0.41014114 -0.0073597925 3.8160005 1.4836599e-38
0.43155146 -0.00334536 3.8160005 1.5113195e-38
0.4348968 0.076943278 3.8160002 1.4006841e-38
0.44493288 0.076943278 3.8160002 1.3824265e-38
0.10261822 -0.64824677 1.7130001 1.2073634e-38
0.098125301 -0.64611733 1.7220001 1.2164756e-38
0.10265416 -0.64611733 1.7220001 1.2164753e-38
-0.88543552 -0.62661982 1.7265 7.5734058e-39
-0.93158638 -0.60760188 1.794 1.0894255e-38
-0.94099647 -0.60571706 1.8040001 1.2734933e-38
0.96787882 -0.56893414 1.9699999 7.2823561e-39
0.97017086 -0.56284106 1.9810003 7.4678292e-39
0.98122233 -0.56268322 1.9810001 8.3894338e-39
0.95273304 -0.55624163 1.9880002 7.190885e-39
0.96947378 -0.55276245 1.9837694 8.3894324e-39
0.94774961 -0.56061995 2.0072 7.4674677e-39
0.94922245 -0.55523068 2.0123339 7.5585843e-39
0.97074509 -0.55277395 2.0110002 8.5731048e-39
0.98533928 -0.54602337 2.0098889 9.7709235e-39
0.87341321 -0.56738079 2.0280001 7.7418938e-39
0.86967957 -0.54936492 2.0280001 7.5571452e-39
0.93119889 -0.55319434 2.0280001 7.7429657e-39
0.94701743 -0.55055028 2.0280001 7.5596675e-39
0.97072244 -0.55292076 2.0280001 8.6656591e-39
0.98583448 -0.54847598 2.0280001 9.4028612e-39
0.87187237 -0.53585309 2.0280001 7.8337363e-39
0.85850298 -0.54713815 2.0530002 7.8333775e-39
0.86339569 -0.54989451 2.0458505 7.6497009e-39
0.92853367 -0.54703593 2.04269 7.8348153e-39
0.94937563 -0.54515839 2.0430005 8.6663766e-39
0.96843582 -0.5492056 2.0436115 8.7575016e-39
0.98816586 -0.54957795 2.0475836 9.4028612e-39
1.0073835 -0.54988825 2.0465002 1.0048952e-38
-0.11098747 -0.5321399 2.0530002 1.1799593e-38
0.85850304 -0.53453958 2.0530002 7.3727623e-39
0.92329568 -0.53813922 2.0530002 7.4671201e-39
-1.0906768 -0.51294208 2.0530005 1.2277199e-38
0.83920258 -0.55197918 2.0780001 7.9259263e-39
0.85150534 -0.55012453 2.0710468 7.8337349e-39
0.93593377 -0.54128468 2.0650001 8.1135644e-39
0.95111221 -0.54283231 2.072 8.7582149e-39
0.96880531 -0.54521543 2.0707779 9.0326452e-39
0.98245275 -0.5484308 2.0715001 9.1248408e-39
1.0183377 -0.55562258 2.0780001 1.0048951e-38
1.0268391 -0.55683708 2.0780001 9.8642065e-39
-0.11767058 -0.53404343 2.0650001 1.2075104e-38
0.83980983 -0.53011858 2.0780001 7.6496967e-39
0.91024911 -0.53291869 2.0719335 7.651496e-39
0.93005061 -0.53458357 2.0752625 8.6660151e-39
0.94679409 -0.5340932 2.0779998 9.1252009e-39
-1.10578 -0.51190144 2.0780001 1.1267381e-38
0.89263952 -0.51918828 2.0780001 8.5748802e-39
-1.0988622 -0.49602675 2.0650001 8.2245472e-39
0.83200049 -0.55100256 2.0900002 7.9259319e-39
0.84151858 -0.54993176 2.0900002 7.9259319e-39
0.96925145 -0.54234105 2.0900002 9.4936191e-39
0.99490273 -0.55333447 2.0900002 9.7709193e-39
1.0086445 -0.55516672 2.0900002 9.8641981e-39
0.83439916 -0.53061467 2.0900002 7.9259319e-39
0.88680089 -0.52218652 2.0900002 7.4667516e-39
0.91245222 -0.52658385 2.0900002 8.7585708e-39
0.92972761 -0.52846837 2.0900002 9.0337242e-39
0.95092911 -0.53024834 2.0900002 9.9545931e-39
0.96467084 -0.53592825 2.0900002 1.0048225e-38
0.89177418 -0.51799858 2.0900002 8.1128371e-39
0.90512323 -0.51852202 2.0900002 9.2191902e-39
0.97896755 -0.5401836 2.1030002 1.0508487e-38
0.99026489 -0.54891205 2.1082003 9.6798069e-39
0.7995165 -0.53424764 2.1160002 8.0170457e-39
0.81150275 -0.53167921 2.1160009 7.9259319e-39
0.91812772 -0.52359092 2.1030002 8.9426104e-39
0.92896748 -0.52477252 2.1067147 9.1259254e-39
0.94762588 -0.52727818 2.1030002 9.956035e-39
0.97124517 -0.53547615 2.1062503 1.041737e-38
0.81594676 -0.5138424 2.1160002 7.6500639e-39
0.88978565 -0.51067084 2.1066406 8.9426062e-39
0.90863168 -0.51450324 2.1073339 9.4014319e-39
0.79696274 -0.53566355 2.1290002 7.9255746e-39
0.80549496 -0.52713132 2.1289999 7.9259319e-39
0.93507814 -0.52695358 2.1290002 9.3092363e-39
0.9444102 -0.52819782 2.1290002 9.6780076e-39
0.9674294 -0.53441918 2.1290002 1.0325535e-38
0.98360509 -0.53939635 2.1290002 1.0418094e-38
-0.14744744 -0.50953358 2.1290002 1.2076539e-38
0.86686885 -0.50444329 2.1289999 8.4801833e-39
0.890284 -0.50356096 2.1290002 9.3092391e-39
0.90670842 -0.50953358 2.1290002 9.4932702e-39
0.9201467 -0.51326638 2.1290002 9.7727242e-39
0.80345601 -0.52478266 2.1430001 8.0181303e-39
0.93371224 -0.52227771 2.1430001 9.9545945e-39
0.94721305 -0.52825117 2.1495004 1.0047869e-38
-0.16254802 -0.50843513 2.1560001 1.2076183e-38
0.79527193 -0.50939327 2.1503477 7.8340978e-39
0.85433567 -0.50129604 2.1485717 7.9280885e-39
0.86870033 -0.50124335 2.1495001 9.1269974e-39
0.89363337 -0.50286448 2.1430001 9.6780174e-39
0.90971458 -0.50800884 2.1462502 1.0323017e-38
0.92995483 -0.51664156 2.1430001 9.9567553e-39
0.84905922 -0.49659121 2.1538334 8.2046782e-39
0.87331301 -0.49681208 2.15275 9.4947051e-39
0.88793421 -0.49668366 2.151273 1.013935e-38
0.95245159 -0.5269556 2.1700001 1.0325897e-38
0.77806795 -0.50412714 2.1700001 8.0184863e-39
0.78848976 -0.50875908 2.1699996 7.9262934e-39
0.85796738 -0.5003224 2.1700001 8.2043321e-39
0.90742892 -0.50412714 2.1700001 1.106381e-38
0.934062 -0.51934612 2.1700001 1.0968746e-38
0.84995741 -0.48950899 2.1699998 9.4025053e-39
0.86843038 -0.49366415 2.1700001 9.4939891e-39
0.88840526 -0.49461532 2.1700001 1.0692881e-38
0.77131361 -0.51101661 2.1886666 8.0181275e-39
0.91328329 -0.50355029 2.184 1.1156375e-38
0.92673081 -0.51484585 2.1886668 1.0693234e-38
0.77116418 -0.48997918 2.1883998 8.0184905e-39
0.82808185 -0.48344666 2.184 9.2166777e-39
0.86999214 -0.48676965 2.1875 1.0507414e-38
0.88971853 -0.49276033 2.1920002 1.1246772e-38
0.90945399 -0.49972105 2.184 1.1432592e-38
0.84976882 -0.47903067 2.1980002 1.050741e-38
0.91529608 -0.50224936 2.2120001 1.1248213e-38
0.92930138 -0.50957519 2.2120001 1.11553e-38
0.75434369 -0.48867506 2.2120001 8.2025202e-39
0.86681646 -0.48285747 2.2120001 1.1707731e-38
0.89105624 -0.49158382 2.2120001 1.1247493e-38
0.90947855 -0.49837098 2.2120001 1.1616284e-38
0.75434363 -0.47897911 2.2120001 8.0181289e-39
0.83191109 -0.47703993 2.2120001 9.771648e-39
-1.2081133 -0.44019538 2.2120001 1.6519626e-38
-1.2061741 -0.436317 2.2120001 1.7162116e-38
0.91913766 -0.50152522 2.2260001 1.1339337e-38
0.93251914 -0.50375545 2.2260001 1.1339335e-38
0.73711979 -0.48910689 2.2260001 8.2025202e-39
0.74789709 -0.48932868 2.2260001 8.2943585e-39
0.85669094 -0.4820106 2.2260001 1.0689283e-38
0.86970067 -0.48331159 2.2260003 1.142972e-38
0.88986576 -0.48981646 2.2260001 1.1708469e-38
0.91133183 -0.49762234 2.2260003 1.1615919e-38
0.73648101 -0.47654653 2.2260001 8.2947172e-39
0.809856 -0.47531992 2.2260001 8.849679e-39
0.83067149 -0.47485527 2.2260001 1.0046437e-38
0.84420156 -0.47654653 2.2260001 9.954247e-39
-1.2138081 -0.44493288 2.2260001 1.6518908e-38
0.93286735 -0.50085515 2.2440002 1.1615203e-38
0.73178583 -0.48990965 2.2493336 8.1103245e-39
0.85853457 -0.48132944 2.2410002 1.0970163e-38
0.86633253 -0.48293376 2.2485001 1.1430794e-38
0.89389753 -0.4911525 2.2410002 1.1708832e-38
0.9101758 -0.49480107 2.2410002 1.1616281e-38
0.9298358 -0.49551046 2.2519095 1.189143e-38
0.94734704 -0.49641776 2.256 1.1892149e-38
0.96910238 -0.49641776 2.256 1.1801028e-38
0.7341972 -0.47549537 2.245286 8.2028831e-39
0.81059653 -0.46715668 2.2485008 1.0047153e-38
0.82782966 -0.46862644 2.2480004 1.0414855e-38
0.84857124 -0.47347075 2.2493336 1.1336803e-38
0.86032557 -0.47664016 2.256 1.2076158e-38
-1.2218637 -0.45386553 2.2495716 1.6520343e-38
-1.2160935 -0.45775414 2.2410002 1.6522496e-38
0.87400949 -0.48379111 2.2710001 1.1616627e-38
0.88197315 -0.48777294 2.2710001 1.1984691e-38
0.78906405 -0.46388206 2.2710004 9.309588e-39
0.83817309 -0.46786386 2.2710001 1.1335721e-38
0.84215492 -0.47184566 2.2710001 1.0783999e-38
0.79238218 -0.4599002 2.2710001 9.6808929e-39
0.81096405 -0.45857292 2.2710001 1.0875836e-38
0.82622766 -0.4599002 2.2710001 1.1612667e-38
0.87777829 -0.48297846 2.286 1.226092e-38
0.7117753 -0.47128817 2.2859998 8.2028803e-39
0.78759557 -0.46293786 2.286 8.389431e-39
0.83769703 -0.46494192 2.286 1.2445307e-38
0.84370923 -0.46694598 2.286 1.3089962e-38
0.77316636 -0.45251679 2.286 9.5868896e-39
0.79026765 -0.455367 2.286 1.0140072e-38
0.81164426 -0.45692569 2.286 1.0782923e-38
0.82567275 -0.45692569 2.286 1.2628987e-38
0.83802146 -0.4615159 2.309 1.2814097e-38
0.84611833 -0.46556434 2.309 1.2722258e-38
0.9424938 -0.47734061 2.3170002 1.290522e-38
0.77040559 -0.45035669 2.3106 9.5876154e-39
0.78874761 -0.44921109 2.3053639 1.0231911e-38
0.80785769 -0.45399183 2.3053639 1.115242e-38
0.82696056 -0.45492423 2.3063335 1.2814097e-38
1.1228496 -0.47654635 2.3330002 1.1891789e-38
0.75402039 -0.44518566 2.3330002 9.3099537e-39
0.77106428 -0.44586745 2.3330002 1.0232273e-38
0.7915169 -0.44545838 2.3330002 1.106022e-38
0.80992424 -0.45200318 2.3330002 1.23524e-38
0.82628638 -0.45609373 2.3330002 1.2721901e-38
0.74856639 -0.43973163 2.3330002 9.4936261e-39
0.7701745 -0.44274735 2.3490002 1.05085e-38
0.78870815 -0.44274735 2.3490002 1.1152061e-38
0.80380952 -0.44686592 2.3490005 1.2352761e-38
0.75105256 -0.43480435 2.3490005 1.0786164e-38
0.7639966 -0.43862876 2.3490002 1.0417387e-38
-1.2417519 -0.41803586 2.3490002 1.1076815e-38
-1.2280233 -0.41803586 2.3490005 1.0800225e-38
0.77542043 -0.44161645 2.365 1.0415238e-38
0.78889698 -0.44161645 2.365 1.2076169e-38
0.8106668 -0.44852751 2.3650002 1.2721185e-38
0.82725334 -0.45820299 2.365 1.2997766e-38
0.7298075 -0.43124986 2.365 9.6801782e-39
0.74846739 -0.42917654 2.365 1.087764e-38
0.77127385 -0.43746981 2.365 1.0508854e-38
-1.2300694 -0.41555187 2.3650002 1.1350883e-38
0.79147154 -0.44225928 2.3852501 1.1522642e-38
0.81136155 -0.44478488 2.3895004 1.2906299e-38
0.73031211 -0.42926246 2.3919289 1.0693608e-38
0.75045824 -0.42763624 2.3912001 1.1061313e-38
0.77088463 -0.43466622 2.3895001 1.106095e-38
0.70565414 -0.41274109 2.398 1.1617737e-38
0.71347952 -0.42131287 2.4150004 1.0234793e-38
0.73135775 -0.42319477 2.4150002 1.1616291e-38
0.74947113 -0.42554715 2.4150002 1.1337903e-38
0.76429117 -0.42766428 2.4150002 1.2166575e-38
0.78122836 -0.43825004 2.4150002 1.1061308e-38
0.70743054 -0.40740016 2.4150002 1.2170552e-38
0.72671175 -0.41443208 2.4150002 1.1615932e-38
0.74621868 -0.42214656 2.4320002 1.1798517e-38
0.68560755 -0.40478557 2.4320004 1.1986158e-38
0.71210581 -0.40509012 2.4320002 1.2169832e-38
0.73129427 -0.41148627 2.4320002 1.1799601e-38
0.69718146 -0.39869398 2.4320002 1.2540411e-38
0.70144552 -0.39869398 2.4320002 1.2630804e-38
0.75818515 -0.42741883 2.45 1.1796356e-38
0.77107215 -0.42913708 2.45 1.2628633e-38
1.0681891 -0.43457827 2.45 1.3181807e-38
1.1297604 -0.43601015 2.45 1.2720832e-38
0.6894545 -0.40164483 2.45 1.2907755e-38
0.71952415 -0.41023615 2.45 1.2261668e-38
0.734559 -0.41238397 2.45 1.2352771e-38
0.74529815 -0.41667968 2.45 1.2537511e-38
-1.2488457 -0.38637134 2.45 9.873584e-39
-1.2310389 -0.38710567 2.4500005 1.0057977e-38
0.67441964 -0.39734918 2.45 1.4291767e-38
0.68086314 -0.39734918 2.45 1.4015178e-38
0.67044836 -0.40010628 2.467 1.2446741e-38
0.69423854 -0.40226907 2.467 1.327726e-38
0.70721483 -0.40010628 2.467 1.2906309e-38
0.7266795 -0.40875724 2.467 1.2629721e-38
0.74902785 -0.41596636 2.467 1.3274718e-38
0.67044836 -0.39361805 2.467 1.3737513e-38
0.68805921 -0.39454496 2.4670002 1.3553483e-38
0.70288938 -0.3957808 2.467 1.3273654e-38
-1.3096914 -0.37662515 2.4670002 8.1207768e-39
-1.297642 -0.37847891 2.467 8.3973651e-39
-1.2630382 -0.37847891 2.467 8.8590719e-39
-1.2500618 -0.37847891 2.467 9.0441765e-39
-1.2392482 -0.37847891 2.467 9.1363707e-39
-1.2003188 -0.37847891 2.467 9.9657824e-39
-1.191668 -0.37847894 2.467 9.8739469e-39
0.72631752 -0.408254 2.4850004 1.2537884e-38
0.75376678 -0.41609669 2.4850001 1.3183602e-38
0.66977286 -0.3875339 2.4850004 1.4108457e-38
0.68962157 -0.38947037 2.4850004 1.336765e-38
0.71063215 -0.39605436 2.4850004 1.3274723e-38
0.73216367 -0.40594491 2.503 1.3091409e-38
0.99064052 -0.41539729 2.5030003 1.3826456e-38
1.0076698 -0.41569731 2.503 1.3735336e-38
1.0291252 -0.41691634 2.503 1.3550591e-38
1.0458018 -0.41735521 2.503 1.3550234e-38
0.64951181 -0.38839051 2.503 1.2541124e-38
0.66706622 -0.38509905 2.503 1.4292132e-38
0.69120353 -0.38487965 2.503 1.3643153e-38
0.70583212 -0.39131626 2.503 1.3551306e-38
0.66706622 -0.37961331 2.503 1.392191e-38
0.73624748 -0.40460446 2.5220001 1.3827897e-38
1.0118797 -0.40976334 2.5220003 1.3826817e-38
0.65096784 -0.38439003 2.5220003 1.3922985e-38
0.6663813 -0.38426369 2.5220001 1.4383247e-38
0.68981743 -0.38360041 2.5220001 1.4011929e-38
0.7185598 -0.39576066 2.5220001 1.3552032e-38
0.64338744 -0.37586206 2.5220001 1.5028976e-38
0.67212981 -0.37807301 2.5220001 1.3737865e-38
0.65491736 -0.3809213 2.5410001 1.4753111e-38
0.66605538 -0.3809213 2.5410001 1.429212e-38
0.68610388 -0.38314891 2.5410001 1.3551672e-38
0.7150628 -0.39205936 2.5410001 1.38279e-38
0.63041371 -0.36755568 2.5410001 1.4937137e-38
0.64897704 -0.37201089 2.5410004 1.4383967e-38
0.6963644 -0.38435698 2.5790002 1.4104484e-38
1.1503114 -0.39449626 2.5735717 1.2906297e-38
1.1666365 -0.39340067 2.5790002 1.2905939e-38
1.2593343 -0.39566159 2.5790002 1.2168734e-38
1.2706389 -0.39566159 2.5790002 1.2076179e-38
1.2842045 -0.39566159 2.5790002 1.2167654e-38
0.63520259 -0.36371702 2.5663335 1.4199932e-38
0.65168834 -0.36896476 2.5663338 1.4106656e-38
0.66924316 -0.376865 2.565429 1.3921546e-38
0.68252796 -0.37842762 2.5695002 1.3828614e-38
0.61023968 -0.35369977 2.5669091 1.4568353e-38
0.62627578 -0.35948682 2.5790002 1.4659108e-38
-1.4040334 -0.33461666 2.5790002 3.6910734e-39
-1.3934826 -0.3353703 2.5790002 4.2438786e-39
-1.3701196 -0.33687758 2.5790002 6.6409454e-39
-1.358815 -0.33687758 2.5790002 6.7342242e-39
-1.329423 -0.33687758 2.5790002 6.732076e-39
-1.3158574 -0.33687758 2.5790002 6.2714454e-39
1.1706761 -0.38718861 2.5979998 1.2997416e-38
1.2903366 -0.38841501 2.598 1.1983623e-38
0.63544482 -0.36213523 2.598 1.4474717e-38
0.63999999 -0.36213523 2.598 1.4382521e-38
0.67188609 -0.37352312 2.598 1.4287806e-38
0.68555158 -0.3758007 2.598 1.4012294e-38
0.59054399 -0.3510727 2.598 1.5946593e-38
0.61039144 -0.34846973 2.598 1.4382878e-38
0.62177932 -0.35074732 2.598 1.4658019e-38
-1.4060262 -0.33100829 2.5979998 3.5985134e-39
-1.3889985 -0.32992375 2.598 3.8750961e-39
-1.3728113 -0.33195728 2.5979998 5.0743582e-39
-1.3495927 -0.33176753 2.5979998 5.7190017e-39
-1.3297814 -0.32927299 2.598 5.9033972e-39
-1.2904768 -0.33525977 2.5979998 6.3643739e-39
-1.3847686 -0.3165836 2.598 2.6790613e-39
-1.3255515 -0.3165836 2.598 4.1480999e-39
0.65640241 -0.36951324 2.618 1.3737499e-38
1.0970641 -0.3786937 2.618 1.3917577e-38
1.1750979 -0.3786937 2.618 1.2905585e-38
1.2531319 -0.3786937 2.618 1.2352047e-38
1.2623123 -0.3786937 2.618 1.2076539e-38
0.59115565 -0.34787363 2.618 1.6591941e-38
0.60897011 -0.34503207 2.618 1.4106646e-38
0.6242708 -0.34656212 2.618 1.4748778e-38
-1.4229703 -0.32361099 2.618 2.8641644e-39
-1.4078225 -0.32452905 2.618 3.1389618e-39
-1.346084 -0.32705367 2.618 4.8896068e-39
-1.3265755 -0.32820123 2.618 6.1796281e-39
-1.3116573 -0.3270537 2.618 6.8249807e-39
-1.4229703 -0.31672564 2.618 1.0166869e-39
-1.4091995 -0.31443051 2.618 1.2925409e-39
-1.3893782 -0.31276134 2.618 2.1233679e-39
-1.3696089 -0.31385672 2.618 2.9534958e-39
-1.3495268 -0.31311902 2.618 3.3211979e-39
-1.3320838 -0.31259441 2.618 3.5970673e-39
-1.3143349 -0.31749067 2.618 4.5190208e-39
1.1104912 -0.37247726 2.6390002 1.3642788e-38
1.1283686 -0.37289795 2.6390002 1.3458397e-38
1.189151 -0.37340268 2.6390002 1.2905582e-38
1.269096 -0.3735055 2.6390002 1.2352044e-38
0.57144028 -0.34008792 2.6390002 1.5027522e-38
0.59365004 -0.34564039 2.6390002 1.9721538e-38
0.61077011 -0.34240144 2.6390002 1.3921172e-38
0.62233776 -0.34471497 2.6390002 1.4472916e-38
-1.3071407 -0.32157975 2.6390004 5.7215255e-39
0.57606733 -0.33546087 2.6390002 1.6949581e-38
0.58069438 -0.33546087 2.6390002 1.759495e-38
-1.4112492 -0.30538505 2.6390002 3.671402e-43
-1.3892708 -0.30769861 2.6390002 2.5223372e-44
-1.3696058 -0.30769861 2.6390002 1.3865288e-39
-1.3510976 -0.30422831 2.6390002 2.1248113e-39
-1.3296976 -0.30827701 2.6390002 3.2304414e-39
-1.3135028 -0.31174731 2.6390002 3.597796e-39
-1.4135628 -0.29844451 2.6390002 1.44614e-42
-1.3256488 -0.29728776 2.6390002 6.4860781e-40
-1.3163948 -0.29844451 2.6390002 2.4928553e-39
1.1095831 -0.36597592 2.6590004 1.3642785e-38
1.1305624 -0.36364484 2.6590002 1.336692e-38
1.1515419 -0.36597586 2.6590004 1.3365841e-38
0.59325391 -0.34499639 2.6590002 2.2388361e-38
0.615399 -0.34266531 2.6590002 1.4289232e-38
0.63171637 -0.34732744 2.6590002 1.4565112e-38
0.91377425 -0.35665166 2.6590002 1.5025723e-38
1.1515419 -0.35665166 2.6590002 1.327472e-38
0.56955492 -0.3356722 2.6590004 1.521156e-38
0.58276415 -0.33334109 2.6590002 1.5940799e-38
0.60607469 -0.33800322 2.6590002 1.6313921e-38
-1.3659992 -0.30303735 2.6590002 6.4717708e-40
-1.3508472 -0.3007063 2.6590002 1.8512694e-40
-1.3217092 -0.30303735 2.6590002 3.0456788e-39
-1.3104652 -0.31030479 2.6590002 3.8729353e-39
-1.2680949 -0.31469265 2.6590004 6.0863521e-39
-1.2502233 -0.31624669 2.6590002 6.8249849e-39
-1.3636681 -0.2960442 2.6590002 7.0064923e-45
-1.3496817 -0.2960442 2.6590002 9.18397e-41
-1.3294793 -0.29371315 2.6590004 5.5389825e-40
0.59754771 -0.34223899 2.6800001 2.2476935e-38
0.6108613 -0.34067267 2.6800001 1.8065638e-38
0.62965703 -0.34419689 2.6800001 1.4841692e-38
1.1300935 -0.35946843 2.6800001 1.3550234e-38
1.1512388 -0.35476947 2.6800001 1.3458038e-38
1.1708176 -0.35424736 2.6800001 1.3181807e-38
1.1878903 -0.35570928 2.6800001 1.2997775e-38
1.2110195 -0.35738003 2.6800001 1.2813026e-38
1.2297109 -0.35852861 2.6800001 1.2721186e-38
1.2503861 -0.35852861 2.6800001 1.2444598e-38
1.2640131 -0.3594684 2.6800001 1.2536795e-38
0.55055839 -0.3328411 2.6800001 1.2814115e-38
0.56935412 -0.32970849 2.6800001 1.4750942e-38
0.58854139 -0.33244953 2.6800001 1.7879075e-38
-1.3086529 -0.30778015 2.6800001 3.5974232e-39
-1.2679288 -0.30621383 2.6800001 3.965847e-39
-1.3703264 -0.28957179 2.6800001 3.671402e-43
-1.3495338 -0.28804463 2.6800001 3.657389e-43
-1.3283031 -0.29112029 2.6800003 3.6950699e-40
-1.3151139 -0.29309595 2.6800001 1.1070734e-39
1.1713097 -0.34649929 2.7010002 1.3181809e-38
1.1872534 -0.34902501 2.7010002 1.3181807e-38
1.209985 -0.35360295 2.7010002 1.2905225e-38
1.2327166 -0.35376078 2.7010002 1.2721186e-38
1.2493283 -0.35172081 2.7010002 1.2536797e-38
1.266814 -0.35518152 2.7010002 1.2628635e-38
0.55036229 -0.32642874 2.7010005 1.2632965e-38
0.56829035 -0.32439911 2.7010002 1.4566548e-38
0.58644414 -0.32913488 2.7010002 1.5205052e-38
0.61043859 -0.33671209 2.7010002 1.8707745e-38
0.6306445 -0.33860636 2.7010002 1.4842046e-38
-1.2904928 -0.30072033 2.7010002 3.1378786e-39
-1.2677612 -0.30166748 2.7010002 3.5048759e-39
0.53141922 -0.31695721 2.7010005 1.4290686e-38
0.54792666 -0.3187162 2.7010002 1.1249653e-38
0.56355464 -0.31966335 2.7010002 1.4841692e-38
-1.3307468 -0.28335592 2.7010002 4.2038954e-45
-1.3133824 -0.29045957 2.7010002 7.3756644e-40
-1.2908876 -0.29203811 2.7010002 1.9389809e-39
-1.2710234 -0.29230124 2.7010002 2.3081334e-39
-1.2573425 -0.2959846 2.7010002 3.3215608e-39
-1.3307467 -0.26993793 2.7010002 7.272739e-43
1.1689144 -0.34454724 2.7229998 1.3274362e-38
1.1888074 -0.34375152 2.723 1.3181806e-38
1.231511 -0.34666917 2.7229998 1.2905575e-38
1.2460992 -0.34613869 2.723 1.2629348e-38
0.57530636 -0.32226706 2.723 1.4750212e-38
0.88882053 -0.33659002 2.7230003 1.5118278e-38
0.90712208 -0.33659002 2.723 1.5026083e-38
1.16971 -0.33659002 2.723 1.3365843e-38
1.184033 -0.33659002 2.723 1.3182163e-38
1.2150661 -0.33659002 2.723 1.3182158e-38
1.2293891 -0.33659002 2.723 1.3090318e-38
0.52636951 -0.31152481 2.723 1.4659821e-38
0.55382192 -0.31749272 2.723 1.2077985e-38
0.56337053 -0.31749272 2.723 1.521155e-38
-1.3071426 -0.28680062 2.723 2.7694983e-40
-1.2905005 -0.2850273 2.723 9.1841101e-41
-1.2715623 -0.29123393 2.723 1.9389879e-39
-1.3081656 -0.2708104 2.7229998 7.2447131e-43
-1.289445 -0.27025202 2.7229998 8.4077908e-45
-1.2771324 -0.27691096 2.723 5.6051939e-45
0.5869599 -0.32475239 2.7440002 1.4842769e-38
1.0662036 -0.33544382 2.744 1.4104122e-38
1.0907938 -0.33704752 2.744 1.4103047e-38
1.1124059 -0.33712393 2.7440002 1.3826824e-38
1.1306195 -0.33758211 2.7440002 1.3643147e-38
1.1511593 -0.33326444 2.744 1.355059e-38
1.1686276 -0.33148804 2.744 1.3366199e-38
1.1881682 -0.33030373 2.744 1.3181806e-38
1.2100034 -0.338384 2.7440002 1.2997773e-38
1.2460871 -0.33918583 2.7440002 1.1246791e-38
0.50998157 -0.31031895 2.7440002 1.3368719e-38
0.52970725 -0.30743226 2.7440002 1.4566188e-38
0.54285777 -0.31352639 2.7440002 1.4935696e-38
1.1570808 -0.31994125 2.7440002 1.3458391e-38
1.1691086 -0.31693429 2.744 1.3549868e-38
1.1873223 -0.31787935 2.7440002 1.3366556e-38
-1.2821705 -0.28385764 2.7440002 1.8439406e-40
-1.2851775 -0.26762003 2.744 5.6051939e-45
1.1497991 -0.32990021 2.7670002 1.3734621e-38
1.1619278 -0.32262298 2.7670002 1.3550234e-38
1.2114128 -0.33135566 2.7670002 1.2997776e-38
0.49436513 -0.30709824 2.7670002 1.2260578e-38
0.50778753 -0.30725998 2.7670002 1.3458753e-38
0.5239591 -0.30321708 2.7670002 1.4565113e-38
0.54740787 -0.31130287 2.7670002 1.3182512e-38
0.56034517 -0.31777149 2.7670002 9.4953862e-39
1.1570764 -0.30321708 2.7670002 1.3734631e-38
1.1683965 -0.31615436 2.7670002 1.3550586e-38
-1.2444029 -0.27895972 2.7670002 7.3899016e-40
-1.2395514 -0.27895972 2.7670002 1.3861714e-39
-1.1619278 -0.27895972 2.7670002 4.1473614e-39
-1.1497991 -0.27653399 2.7670002 3.964768e-39
1.1650536 -0.32152057 2.789 1.355095e-38
0.51100987 -0.3031829 2.789 1.4749863e-38
0.52731007 -0.3023679 2.7890003 1.4564747e-38
0.54687023 -0.30888796 2.7890003 1.5026451e-38
0.90954864 -0.31540802 2.789 1.511864e-38
0.93644392 -0.31540802 2.789 1.5210115e-38
0.94133395 -0.31540802 2.789 1.5394149e-38
1.1662762 -0.311333 2.789 1.3550956e-38
0.48900467 -0.28973529 2.7889998 1.4565829e-38
-1.1858363 -0.27262011 2.7889998 2.307762e-39
-1.1694198 -0.26790473 2.7890003 1.8453503e-39
-1.1484623 -0.2679047 2.7890003 3.0453228e-39
-1.1296008 -0.2738426 2.7889998 4.2402843e-39
-1.1687212 -0.25672746 2.789 4.2038954e-45
-1.156496 -0.25672746 2.789 5.6051939e-45
0.95320553 -0.31061354 2.812 1.5026084e-38
0.96635318 -0.31061348 2.812 1.493389e-38
1.0317755 -0.31194094 2.812 1.4656942e-38
1.16439 -0.31143525 2.812 1.3459112e-38
0.47331583 -0.28349647 2.812 1.4659101e-38
0.48810697 -0.28349647 2.812 1.465694e-38
0.50536329 -0.29828757 2.812 1.4842776e-38
1.0378436 -0.29828757 2.812 1.4564746e-38
-1.1931503 -0.26377496 2.812 9.1836897e-41
-1.1438465 -0.26624015 2.812 3.3219153e-39
-1.1889244 -0.25039256 2.812 1.4012985e-45
-1.1688508 -0.25320989 2.812 2.8025969e-45
-1.1504205 -0.25720114 2.812 9.8090893e-45
-1.1290554 -0.25884458 2.812 1.4754944e-39
-1.1142642 -0.25884458 2.812 3.5044877e-39
0.9692865 -0.30072734 2.835 1.4934249e-38
1.0522972 -0.30370975 2.835 1.447255e-38
0.47718722 -0.28084454 2.835 1.4197404e-38
0.48464325 -0.28084454 2.835 1.4104855e-38
0.97301447 -0.29451397 2.835 1.5026443e-38
0.98171324 -0.2932713 2.835 1.4934606e-38
1.0438471 -0.29575664 2.835 1.456439e-38
0.46724582 -0.27587384 2.835 1.4105929e-38
-1.1681145 -0.25102034 2.835 9.18397e-41
-1.1482316 -0.25350568 2.835 1.8367099e-40
-1.1298401 -0.2549969 2.835 1.1988977e-39
-1.108466 -0.25599104 2.835 2.9527783e-39
-1.087755 -0.25599104 2.835 3.7821732e-39
0.49626523 -0.28322208 2.8590002 1.474914e-38
0.97197813 -0.29525277 2.8590002 1.5117921e-38
0.99503684 -0.29575402 2.8590002 1.5026442e-38
1.0000496 -0.29575402 2.8590002 1.484205e-38
1.1078243 -0.29826042 2.8590002 1.4104121e-38
1.1604586 -0.29826042 2.8590002 1.4195609e-38
0.45198569 -0.26818374 2.8590002 1.3921176e-38
0.46869493 -0.27319652 2.8590002 1.3828271e-38
-1.1292679 -0.24924657 2.8590004 4.2038954e-45
0.38999426 -0.25414798 2.8590004 1.1154228e-38
-1.1328883 -0.23058787 2.8590002 9.219563e-41
0.43219054 -0.26032528 2.8830001 1.4289957e-38
0.47010195 -0.27043501 2.8830001 1.4105203e-38
1.1171241 -0.27548987 2.8830001 1.345878e-38
1.1272337 -0.27548987 2.8830001 1.0323432e-38
-0.63943976 -0.24010585 2.8830001 8.6656633e-39
0.42966312 -0.25527042 2.8830001 1.3552036e-38
0.44230026 -0.25527042 2.8830001 1.3827547e-38
-0.65460438 -0.22494127 2.8830001 7.6518645e-39
0.94835699 -0.27787879 2.9080002 1.5394865e-38
0.96620244 -0.27787882 2.9080005 1.5211194e-38
1.0926501 -0.26972088 2.9080002 1.447291e-38
1.1104226 -0.27569363 2.9080005 1.4564021e-38
0.4257409 -0.25238532 2.9080005 1.3644225e-38
1.0917584 -0.27306816 2.9330003 1.4288872e-38
0.34712055 -0.24812691 2.9330003 1.1247488e-38
0.4119164 -0.24632703 2.9330003 1.3735345e-38
0.43968603 -0.25455508 2.9330001 1.3275442e-38
0.44482854 -0.25455508 2.9330001 1.3552385e-38
0.40972245 -0.24116574 2.9580002 1.3827175e-38
0.42683741 -0.24738936 2.9580002 1.3919371e-38
0.96984929 -0.25499603 2.9580002 1.5302678e-38
0.98540843 -0.2567248 2.9580002 1.5301954e-38
0.33192703 -0.22819985 2.9580002 1.143188e-38
0.38897699 -0.23079301 2.9580002 1.3551299e-38
0.40712926 -0.23597938 2.9580002 1.3918285e-38
-0.99578106 -0.21523394 2.9580002 1.8367099e-40
0.96587545 -0.25258675 2.9840004 1.530375e-38
0.98995906 -0.25075975 2.9840002 1.5118284e-38
1.0280775 -0.25113344 2.9840007 1.4750215e-38
0.3139168 -0.22497371 2.9840002 1.1800675e-38
0.37408417 -0.22235774 2.9840002 1.3550943e-38
0.38847205 -0.2262817 2.9840002 1.382644e-38
0.40285987 -0.23020566 2.9840002 1.4565082e-38
0.42378765 -0.23805358 2.9840002 1.5025349e-38
1.0254616 -0.23805358 2.9840002 1.4749502e-38
0.99085689 -0.24408592 3.0100002 1.5027522e-38
1.0088885 -0.24364612 3.0100002 1.4934607e-38
1.0233138 -0.24434979 3.0100002 1.4933887e-38
0.39317623 -0.22429517 3.0100002 1.5210816e-38
1.0159252 -0.23485023 3.0100002 1.5210819e-38
0.37206611 -0.21901762 3.0100002 1.2905568e-38
-0.93676215 -0.19790749 3.0100002 3.6734198e-40
0.38072845 -0.22098224 3.0370002 1.3182514e-38
0.99575126 -0.23163199 3.0370004 1.5119356e-38
1.0111934 -0.23216449 3.0370004 1.5118639e-38
0.22950204 -0.21139745 3.0370004 7.74407e-39
0.3727411 -0.21565737 3.0370002 1.4565444e-38
-0.89191622 -0.19169545 3.0370004 0
-0.89298123 -0.17039596 3.0370004 3.6770352e-40
1.0099761 -0.22563297 3.0640001 1.5210837e-38
0.26055235 -0.20145799 3.0640001 1.0326614e-38
1.0019178 -0.21757464 3.0640001 1.6039516e-38
0.26950604 -0.19011664 3.0640001 1.0510285e-38
0.33039114 -0.19250432 3.0640001 1.3917565e-38
0.97719055 -0.21549694 3.0920002 1.5671088e-38
0.98861396 -0.21569055 3.0920005 1.5487057e-38
0.25054181 -0.18393721 3.0920005 1.0417375e-38
0.31714645 -0.18161377 3.0920002 1.437889e-38
0.3252784 -0.18703508 3.0920002 1.4840589e-38
0.24124815 -0.17619246 3.0920002 9.7720179e-39
0.30359316 -0.17619246 3.0920002 1.4381048e-38
0.22975679 -0.16411202 3.1200004 9.8624073e-39
-0.88346958 -0.1531712 3.1200001 2.7658689e-40
-0.87526399 -0.1449656 3.1200001 2.7623236e-40
0.28986543 -0.17391928 3.1490002 1.2534271e-38
0.31747168 -0.17944051 3.1490002 1.5301931e-38
-0.88339949 -0.1545949 3.1490002 1.8439126e-40
-0.86909443 -0.14982656 3.1490002 7.3504691e-40
-0.85027194 -0.14907366 3.1490006 8.2796701e-40
-0.86683571 -0.13527054 3.1490002 9.1943957e-40
-0.84751141 -0.13211554 3.1490004 6.4429742e-40
0.27024654 -0.16437677 3.1780002 1.1799935e-38
0.28974885 -0.16994885 3.1780002 1.2720452e-38
0.25592354 -0.16030376 3.2080002 1.1523718e-38
0.27092275 -0.16030376 3.2080002 1.3550566e-38
0.91682506 -0.17155313 3.2080002 1.6227877e-38
0.93201172 -0.17492796 3.2080002 1.5855503e-38
0.94776082 -0.17717783 3.2080002 1.5581063e-38
0.16874081 -0.14483586 3.2080002 7.1861738e-39
0.18280253 -0.14342968 3.2080002 7.3705707e-39
0.25029886 -0.15467906 3.2080002 1.1614819e-38
0.17436549 -0.13780499 3.2080002 6.8152067e-39
