# .PCD v0.7 - Point Cloud Data file format
VERSION 0.7
FIELDS x y z
SIZE 4 4 4
TYPE F F F
COUNT 1 1 1
WIDTH 1475
HEIGHT 1
VIEWPOINT 0 0 0 1 0 0 0
POINTS 1475
DATA ascii
-0.97456121 -0.070041455 1.8076
-0.94574094 -0.056934237 1.8040001
-0.87516534 0.057072315 1.8085001
-0.87702906 0.066436782 1.8130001
-0.82726109 0.066697679 1.8052858
-0.8128944 0.06484177 1.8040001
-0.79233485 0.071167797 1.8040001
-0.97747892 0.1891382 1.8130001
-0.94569099 0.19231699 1.8130001
-0.93032253 0.19131961 1.8078572
-0.98474479 0.37623292 1.8130001
-0.97742504 0.37812823 1.8085002
-0.96732676 0.38431233 1.809625
-0.95064574 0.38889447 1.809
-0.95681155 0.42542529 1.8040001
-0.89214128 0.43136641 1.8095387
-0.96420419 0.71760869 1.807
-0.95399773 0.717215 1.806
-0.9520486 0.72317547 1.8130001
-1.0011175 -0.085167289 1.8330001
-0.98811859 -0.084739916 1.8238335
-0.97007149 -0.083079852 1.8263334
-0.9535197 -0.083332427 1.8280001
-0.93192267 -0.082875684 1.8296669
-0.84951895 -0.082185306 1.8292501
-0.83053184 -0.085424595 1.8271668
-0.811782 -0.087887824 1.8298424
-0.98734534 -0.077670746 1.8230002
-0.9763968 -0.074256971 1.826077
-0.94005406 -0.078739569 1.8330001
-0.93684018 -0.078739569 1.8330001
-0.95933717 -0.059456408 1.8330001
-0.9317292 0.19337776 1.8230001
-0.87738377 0.18319002 1.8330001
0.32577297 0.19304132 1.8230003
0.31547746 0.20424528 1.8230002
0.32282901 0.2045649 1.8230001
-1.0027243 0.35834539 1.8330001
-0.98913854 0.35688457 1.8330001
-0.97571516 0.35778183 1.8301431
-1.0027243 0.36477312 1.8330001
-0.99077237 0.36850533 1.8250009
-0.97082162 0.36975235 1.8265421
-0.94930047 0.36964229 1.8257506
-0.93200392 0.37148881 1.8298424
-0.96773726 0.38381225 1.826125
-0.94835514 0.38531998 1.8245791
-0.93170929 0.38811961 1.8281727
-0.94349748 0.69304603 1.8330002
-0.96255106 0.71669078 1.8330001
-0.95190644 0.70915282 1.8315187
-1.0011173 0.72954619 1.8330001
-0.99070561 0.72828776 1.8315717
-0.97290391 0.72261643 1.8263334
-0.95131719 0.72570217 1.8317502
-0.98419273 -0.72845578 1.853
-0.97266215 -0.72599471 1.8466365
-0.035545327 -0.70282805 1.8430001
-1.0098104 -0.082400531 1.8430001
-0.97073519 -0.082512304 1.8455
-0.93078226 -0.084241539 1.851182
-0.91160792 -0.082579367 1.847
-0.85470355 -0.082400531 1.8430001
-0.82885242 -0.082400531 1.8430001
-0.81092232 -0.084168188 1.8463334
-1.0098104 -0.079169139 1.8430001
-0.98176408 -0.071283519 1.848
-0.97416425 -0.07949131 1.8505001
-0.94786274 -0.079340972 1.8470001
-0.93081748 -0.07959871 1.853
-0.9161973 -0.079598702 1.853
-0.84892052 -0.079383925 1.8480003
-0.83226681 -0.079057217 1.853
-0.8153882 -0.078092009 1.8430002
-1.0055147 0.19074635 1.8470001
-0.99579602 0.19656006 1.853
-0.96457088 0.1954993 1.8430001
-0.94535846 0.19944954 1.8496668
-0.87269413 0.18799448 1.8486252
-0.92431962 0.20305793 1.853
-1.0095865 0.35584319 1.84925
-0.98870862 0.35438615 1.8458573
-0.97461653 0.35826552 1.8515714
-0.96780235 0.36030036 1.8430001
-0.95487678 0.36030039 1.8430002
-0.92643309 0.37279049 1.8466365
-0.92829907 0.39075008 1.8458571
-0.9600578 0.65303427 1.853
-0.94844937 0.65218318 1.850778
-0.96005785 0.66927886 1.853
-0.95000827 0.66901779 1.8498186
-0.96694028 0.69113863 1.8491291
-0.95101011 0.68846726 1.8469284
-0.98604935 0.71151507 1.8530003
-0.97192472 0.70877725 1.8449229
-0.95703101 0.70713657 1.8430002
-1.0048169 0.73293078 1.8496666
-0.98700851 0.72645527 1.85175
-0.97167999 0.72350895 1.8430001
-0.94401586 0.73148263 1.8493639
-1.008186 -0.7405405 1.8730001
-1.0062455 -0.73098707 1.8730005
-0.995 -0.72969085 1.863
-1.0262479 -0.13956971 1.8730001
-1.0117685 -0.12462737 1.8705001
-0.98810416 -0.12249225 1.863
-0.97503829 -0.080028281 1.8630002
-0.93257439 -0.080028281 1.8630002
-0.916242 -0.080028273 1.863
-0.98640895 -0.072855547 1.8693638
-0.96877801 -0.077173844 1.8730001
-0.95235801 -0.077173844 1.8730001
-0.930013 -0.076820672 1.8644288
-0.90474015 -0.077173844 1.8730001
-0.84959137 -0.076938406 1.8672858
-1.0229639 0.19868159 1.8730001
-1.0060697 0.19762082 1.863
-0.98355597 0.19868159 1.8730001
-1.006544 0.2019656 1.8730001
-0.99997598 0.20196559 1.8730001
-0.97042 0.20196559 1.8730001
-0.94898152 0.20142645 1.868
-0.92850041 0.20471042 1.868
-1.0229639 0.35302928 1.8730001
-1.0098509 0.35392094 1.8683851
-0.98812437 0.35321629 1.8665718
-0.97398484 0.35628819 1.8660001
-0.96506006 0.36341989 1.8690001
-0.94731462 0.36813426 1.8663334
-0.93162632 0.37382925 1.8670002
-0.92613506 0.39052758 1.8686526
-0.92811704 0.4063071 1.8688335
-0.94869512 0.59604478 1.8730006
-0.96439934 0.61793816 1.8730001
-0.94812208 0.61257923 1.8722864
-0.98417175 0.63278443 1.8730006
-0.96998733 0.63080513 1.8690004
-0.95071507 0.62993878 1.8668636
-1.004902 0.65844065 1.8730001
-0.99114311 0.65074027 1.8730009
-0.9706831 0.64948118 1.8629999
-0.94972324 0.64471757 1.8630004
-1.0061334 0.67075557 1.8730006
-0.99211162 0.66997623 1.8711257
-0.97340506 0.66962433 1.8630002
-1.0229639 0.69620657 1.8730001
-1.0086906 0.69123769 1.8720484
-0.99123824 0.68898278 1.8657273
-0.97438508 0.68399668 1.8630002
-1.0229639 0.70770055 1.8730001
-1.0131118 0.70835745 1.8730007
-0.99463713 0.70568109 1.8630004
-1.0229639 0.73725653 1.8730001
-1.0085481 0.73110044 1.8698754
-0.99659693 0.72678727 1.8630002
-0.94424027 0.73658681 1.8630002
-0.94539815 0.74551296 1.8690001
-1.018521 -0.74449426 1.8830001
-1.0119179 -0.73293889 1.8830001
-1.0288712 -0.14679353 1.8910003
-1.0169529 -0.14086133 1.8903335
-1.0264816 -0.13221779 1.8864738
-1.015457 -0.13131146 1.8896005
-0.92650694 -0.083020329 1.8940001
-0.9182049 -0.081359923 1.8940001
-0.98796308 -0.069637358 1.8888236
-0.97293663 -0.074140467 1.8898752
-0.94877768 -0.073201776 1.8871253
-0.93779898 -0.074429005 1.8866668
-0.90559053 -0.072840914 1.8885002
-0.85235995 -0.075674161 1.8903335
-0.83525884 -0.075529508 1.8866668
-1.0218225 0.19974236 1.8830001
-1.0267595 0.20520519 1.8927778
-1.0096258 0.20740259 1.8926251
-0.99665254 0.20363696 1.8885002
-0.97052383 0.206907 1.8924288
-0.95473385 0.20755085 1.8940001
-0.93179125 0.21222588 1.8912501
-0.91369748 0.21294847 1.8830001
-1.0281837 0.3511059 1.8874
-1.0103987 0.35113755 1.8871253
-0.99146712 0.35356817 1.8912501
-0.97113007 0.3540203 1.8908573
-0.9706279 0.36627078 1.8926251
-0.9488349 0.37156948 1.8921669
-0.931436 0.37614408 1.8885002
-0.9194752 0.37637404 1.8830001
-0.92607826 0.38958013 1.8830003
-0.92698491 0.4086428 1.8897225
-0.96248245 0.57560766 1.8940001
-0.94895846 0.57442856 1.8940008
-0.9308821 0.57718831 1.8899474
-0.98663336 0.59250349 1.8910671
-0.97042274 0.59151703 1.8880544
-0.95199794 0.58948499 1.8868077
-0.92965484 0.5852623 1.886143
-0.99094748 0.61294609 1.8925658
-0.97116113 0.61015642 1.8829997
-0.95579195 0.60913169 1.8830003
-1.0211501 0.63925654 1.8940001
-1.0087317 0.63368267 1.892953
-0.99302661 0.62846148 1.8854443
-0.97890264 0.62233776 1.8830001
-1.0217036 0.65087938 1.8940001
-1.0110698 0.65022367 1.8873043
-1.0257162 0.67163444 1.8940001
-1.0165401 0.66987973 1.8830003
-1.0280786 0.68958414 1.8891873
-1.0180492 0.68931162 1.8830004
-1.028807 0.73132324 1.8901179
-1.0166868 0.72798663 1.8830003
-0.91050053 -0.65678579 1.9143534
0.90469193 -0.60257155 1.904
0.89178008 -0.5956955 1.910926
0.90962797 -0.59248978 1.9104706
-1.0452312 -0.18433407 1.9150002
-1.045091 -0.17295338 1.9126432
-1.0349029 -0.16721866 1.9103684
-1.0432333 -0.15857147 1.904
-1.0281795 -0.15462179 1.9067497
-1.015968 -0.14819926 1.9088892
-1.0382258 -0.12685716 1.904
-1.0115521 -0.13386595 1.9088126
-0.99889588 -0.13262652 1.9150001
-0.927504 -0.082902275 1.904
-0.98604327 -0.064540826 1.9087144
-0.97275418 -0.0678479 1.9111502
-0.95213223 -0.070799895 1.9076669
-0.93324494 -0.077421062 1.9095001
-0.90776867 -0.070597261 1.9083999
-0.98932618 -0.057750419 1.9095
-0.89313048 -0.041970417 1.9150001
-0.90685725 -0.026367297 1.9150004
-0.90996593 -0.01132056 1.9115628
-0.90302277 0.0016691734 1.904
-1.0456197 0.21142909 1.9118572
-1.0323435 0.21355405 1.9113336
-1.0110539 0.21304262 1.908
-0.99355263 0.21014489 1.908231
-0.97026682 0.21298955 1.9087145
-0.95021021 0.21488854 1.9150001
-0.93070745 0.21762417 1.9095001
-0.90672916 0.21891437 1.9062003
-0.90991867 0.22328262 1.9150002
-1.044224 0.34919387 1.9150001
-1.0305754 0.34818172 1.9111178
-1.0126528 0.34898353 1.908125
-0.99169368 0.34860831 1.9114803
-0.97708684 0.35316563 1.9052224
-0.98210776 0.36262441 1.9150001
-0.97333419 0.36656275 1.9131669
-0.94948041 0.37104243 1.9120004
-0.93434978 0.37261319 1.906
-0.92639124 0.41006026 1.9040002
-0.96364075 0.53722131 1.9150001
-0.94943768 0.53448755 1.9141204
-0.93295854 0.53195423 1.9141858
-0.9894526 0.55589819 1.9150004
-0.97166312 0.55135655 1.9145422
-0.95150036 0.55058956 1.9045943
-0.93241459 0.55083382 1.9106002
-1.0029252 0.57113343 1.9150002
-0.99090844 0.57060653 1.9127357
-0.97281849 0.56976718 1.9059641
-0.95209646 0.56685114 1.9039997
-0.93065453 0.56823361 1.9070555
-1.0223993 0.59597993 1.9150002
-1.0098927 0.59110379 1.9113337
-0.9929356 0.58699268 1.9039999
-0.97646654 0.58421063 1.9040002
-1.0284431 0.614447 1.9150006
-1.0101554 0.61033821 1.9059999
-0.99983484 0.60590994 1.904
-1.0435046 0.63147491 1.9150002
-1.0311414 0.63013536 1.9117005
-1.0140988 0.62624341 1.904
-1.0443766 0.65061778 1.9150003
-1.0339198 0.65208161 1.9069334
-1.0453432 0.66928828 1.9150002
-1.0359497 0.67176646 1.904
-1.0390604 0.68603021 1.904
-0.9279936 -0.65291083 1.9313852
-0.91059804 -0.65160179 1.9310002
0.82271743 -0.60264784 1.9310001
0.85267228 -0.60278022 1.9260001
0.83010066 -0.5944249 1.9303336
0.85007495 -0.59268034 1.9308572
0.78796816 -0.57881892 1.9343333
0.81127435 -0.57875431 1.9360001
0.49389297 -0.54141533 1.9360002
-1.0607667 -0.20366719 1.9360001
-1.0573722 -0.20366719 1.9360001
-1.0607667 -0.19857551 1.9360001
-1.0465755 -0.19032803 1.9318621
-1.0370055 -0.19178662 1.9360001
-1.0410898 -0.17774855 1.9310001
-1.0305375 -0.16801493 1.9305457
-1.0122797 -0.14695865 1.9290001
-1.0104667 -0.13400233 1.9260005
-0.99877322 -0.13373461 1.9310001
-0.96745723 -0.064119987 1.9304447
-0.95003271 -0.071121953 1.9317147
-0.93033361 -0.069814406 1.9330002
-0.90944207 -0.066119954 1.9340003
-0.89144224 -0.067909032 1.9329234
-1.0030609 -0.050916798 1.9360001
-0.99158889 -0.057631195 1.9335001
-0.92558914 -0.045800768 1.9348888
-0.90853071 -0.047695279 1.9317898
-0.89332628 -0.047965363 1.930667
-0.96232754 -0.025458399 1.9360001
-0.94959825 -0.026307015 1.9360005
-0.92971796 -0.030668208 1.9311851
-0.91308171 -0.036208082 1.9260004
-0.94535524 -0.01782088 1.9360001
-0.92907405 -0.015519072 1.9278185
-1.0451567 0.21781133 1.9260001
-1.0131321 0.21818832 1.9293334
-0.98523915 0.21837679 1.9310001
-0.97507334 0.21837679 1.9310001
-1.0420971 0.22233669 1.9360001
-1.0287619 0.22282162 1.9360001
-1.0149415 0.22233669 1.9360001
-0.98439145 0.22233669 1.9360001
-0.97929978 0.22233669 1.9360001
-0.92498851 0.2291256 1.9360001
-0.91073656 0.22853385 1.9310001
-1.0495629 0.34618428 1.931
-1.0297925 0.34423319 1.9288574
-1.0121378 0.34783828 1.9274287
-0.97255296 0.35964197 1.9260001
-0.96841979 0.3659274 1.9291253
-0.95465529 0.36774659 1.9260002
-0.90863532 0.39416742 1.933
-0.984052 0.53530532 1.9360001
-0.97061706 0.53242791 1.9313338
-0.94873536 0.52516401 1.9290774
-0.92946362 0.53120846 1.9293338
-1.0200332 0.55838758 1.9360001
-1.0073134 0.55248517 1.9320003
-0.99092329 0.54739451 1.931
-0.97592986 0.54368412 1.9260001
-0.92602217 0.55093569 1.9325002
-1.021973 0.57148051 1.9360001
-1.0123792 0.57087404 1.927429
-0.92358762 0.56225717 1.9260001
-1.0426629 0.59459513 1.936
-1.0302891 0.58793205 1.9321907
-1.0164529 0.5825187 1.9260001
-1.0469922 0.61179227 1.932667
-1.0345438 0.60905164 1.9260004
-1.0507849 0.62923276 1.9260004
-1.0519105 0.64330328 1.9260001
-0.82315493 0.70774353 1.9360002
-0.81840271 0.70978016 1.9360001
-0.86253053 0.75458699 1.9360001
-0.84850186 0.75316632 1.9326671
-0.83567935 0.75640696 1.9320002
-0.86340344 0.766904 1.9360001
-0.84846044 0.76445955 1.9266672
-0.83055848 0.76583534 1.9299133
0.76704329 -0.5828352 1.949667
0.933833 -0.58257401 1.950429
0.94922638 -0.5838837 1.9486004
0.96267462 -0.58374953 1.9470001
0.73013437 -0.57763779 1.9544998
0.74844682 -0.57774156 1.9555715
0.92511392 -0.5786947 1.9530001
0.9438991 -0.5786289 1.9470003
-1.0689528 -0.22620478 1.9589999
-1.0568819 -0.22291723 1.959
-1.0666517 -0.2148802 1.9530001
-1.0516609 -0.20982149 1.9490685
-1.0394838 -0.20653127 1.9470003
-1.0505785 -0.19543663 1.9470001
-1.0376673 -0.18814313 1.9520527
-1.0308487 -0.17170401 1.951421
-1.0190014 -0.16215265 1.9470001
-1.023667 -0.15688214 1.9494002
-1.0190014 -0.15873891 1.9470001
-0.96526963 -0.062186357 1.9557272
-0.94964838 -0.064898759 1.9518002
-0.92878115 -0.063641869 1.9470003
-0.9148823 -0.063154191 1.9470001
-0.89050591 -0.064556502 1.9482002
-1.0043685 -0.050149713 1.9576666
-0.99028051 -0.051136509 1.9548459
-0.9703632 -0.050996382 1.9517999
-0.94812542 -0.049145631 1.9478887
-0.92939073 -0.055473268 1.9470001
-0.91165829 -0.057085324 1.9470003
-0.89269298 -0.056895666 1.9470004
-1.0081079 -0.039499968 1.9590001
-0.99006313 -0.033232354 1.956
-0.97042125 -0.033349615 1.9469998
-0.95140934 -0.037209764 1.9470004
-0.95243347 -0.017068699 1.9470001
-0.97462285 0.21677248 1.9470003
-1.0645016 0.22676754 1.9566002
-1.0513836 0.2284586 1.9525386
-1.0299028 0.23053725 1.9515002
-1.0115275 0.2249793 1.9554706
-0.98979115 0.22830994 1.9538574
-0.96987528 0.22424871 1.9526004
-0.95058757 0.22635153 1.9576666
-0.92752266 0.23401897 1.9542001
-0.91536891 0.23528242 1.9590001
-1.0664992 0.34691277 1.9590001
-1.0543313 0.34556663 1.9555717
-1.0274481 0.34684706 1.9490002
-0.9692865 0.36583036 1.9500002
-0.90949821 0.39320964 1.9524547
-1.0080423 0.53602767 1.9546366
-0.98989356 0.53193104 1.9502003
-0.96748668 0.52735686 1.9510002
-0.94925207 0.52565461 1.9510002
-0.92886043 0.5346598 1.9538572
-0.91438758 0.53607106 1.959
-1.044173 0.55643433 1.9590001
-1.0289209 0.55128628 1.9545
-1.0116022 0.54472256 1.9487146
-0.99681211 0.54278469 1.9470001
-0.92427897 0.54869729 1.9498571
-0.9104827 0.54989022 1.9549086
-1.0630645 0.57876045 1.9590001
-1.0517766 0.57088357 1.9584998
-1.0346327 0.57000476 1.9470003
-0.92000294 0.56156021 1.9470001
-1.0670519 0.59036607 1.9580768
-1.0530921 0.58874166 1.9485651
-1.0360701 0.58204269 1.9470003
-1.0633801 0.60935259 1.9470001
-1.058449 0.608594 1.9470003
-0.85010803 0.67836905 1.9590001
-0.83407915 0.67149949 1.9590001
-0.86308384 0.6932531 1.9589999
-0.85010803 0.69039083 1.9589999
-0.83617806 0.69134486 1.9589999
-0.86875409 0.7112447 1.9589999
-0.85034496 0.71094012 1.9589998
-0.83023578 0.70863342 1.9507236
-0.81759071 0.71859229 1.9470001
-0.86899954 0.72989094 1.9589999
-0.84885669 0.73110157 1.952806
-0.83124042 0.72794431 1.9491819
-0.81759071 0.72200602 1.9470001
-0.87022895 0.74759239 1.9531929
-0.8477518 0.746557 1.9487144
-0.83602506 0.74947089 1.9556397
-0.8758682 0.76979834 1.9470005
-0.83256942 0.76338875 1.951
0.07598947 -0.66145378 1.9700001
0.082897604 -0.66145378 1.9700001
0.1139842 -0.66145378 1.9700001
0.88769507 -0.58201021 1.9700001
0.93777907 -0.58201021 1.9700001
0.9429602 -0.58201021 1.9700001
0.69081336 -0.57056862 1.9699998
0.70981073 -0.56819397 1.97
0.87067157 -0.57806277 1.9700003
0.8905735 -0.5774048 1.9700001
0.90928304 -0.57855618 1.9700001
-1.0678823 -0.23199815 1.9700001
-1.0569444 -0.22451434 1.9700001
-1.0517633 -0.21933323 1.9700001
-1.0414011 -0.18997367 1.9700001
-1.0379471 -0.18479256 1.9700001
-1.0327659 -0.17443037 1.9700001
-1.0123869 -0.04455746 1.9700001
-1.0068605 -0.036267698 1.9700003
-1.0747905 0.22969544 1.9700001
-1.0517633 0.23660356 1.9700001
-1.0258578 0.23401302 1.9700001
-1.0120414 0.23228598 1.9700001
-0.99016571 0.23487654 1.9700001
-0.96985263 0.23216264 1.9700003
-0.95504946 0.2331495 1.9700001
-0.91014659 0.23660356 1.9700001
-1.0431281 0.24005763 1.9700001
-1.0379471 0.24005763 1.9700001
-1.0696094 0.34483099 1.9700001
-1.0500362 0.34540665 1.9700001
-1.0379471 0.3471337 1.9700001
-0.89978439 0.41103393 1.9700001
-0.89978445 0.42887995 1.9700001
-0.56128585 0.47493416 1.9700001
-1.0206767 0.53710735 1.9700001
-1.0068605 0.53250194 1.9700001
-0.99822527 0.53019923 1.9700001
-0.96541166 0.52329111 1.9700001
-0.94756567 0.53019929 1.9700001
-0.92914391 0.53192627 1.97
-0.91532767 0.53365332 1.9700001
-1.047158 0.55265063 1.9700001
-1.0327659 0.54315197 1.9700001
-0.90496546 0.54746956 1.9700001
-1.0690336 0.57356685 1.9700001
-1.0569444 0.56301284 1.9700001
-1.0747905 0.58316159 1.9700001
-0.86178964 0.63727528 1.9700001
-0.84970039 0.63727528 1.9700001
-0.82034081 0.63554823 1.9700001
-0.8151598 0.63382125 1.9700001
-0.8644467 0.65029448 1.97
-0.84970021 0.64936465 1.9700006
-0.82857752 0.65149021 1.9700004
-0.81631112 0.65051591 1.9700001
-0.86816651 0.67115176 1.9700004
-0.84970015 0.67008901 1.9700006
-0.8288191 0.66972256 1.9700006
-0.81688678 0.66145378 1.9700001
-0.84797335 0.68217814 1.9700001
-0.83122104 0.68925905 1.9700001
-0.83070302 0.70290256 1.9700001
0.91799009 -0.58180159 1.9870001
0.92703462 -0.58179414 1.9840001
0.94348621 -0.58531088 1.9930001
0.97080225 -0.58873338 1.9810001
0.63241673 -0.56438601 1.9856157
0.64862669 -0.56575578 1.9900004
0.66921467 -0.57189763 1.9860526
0.82920194 -0.56918216 1.9840001
0.85083187 -0.57418227 1.9847504
0.87026471 -0.57692456 1.9846003
0.89083833 -0.57673466 1.9864547
0.9080742 -0.5775426 1.9890001
0.61090302 -0.55480891 1.9914002
0.62311977 -0.55621064 1.9910002
0.7722609 -0.55735576 1.9930001
-1.0695438 -0.23341426 1.9870001
-1.0500652 -0.19044444 1.9930001
-1.0430764 -0.17996125 1.9930001
-1.036796 -0.17540434 1.9810001
-1.0851541 0.23772775 1.9890002
-1.0680561 0.2379247 1.9810002
-1.0266942 0.23840511 1.9850001
-1.0124825 0.23560914 1.9810002
-0.98592561 0.2373428 1.9870001
-0.96850622 0.23864532 1.9870001
-0.9543522 0.23780651 1.9858001
-1.0843103 0.24425809 1.9930003
-1.0705323 0.24435794 1.9930003
-1.0487862 0.24176362 1.9840001
-1.0360876 0.24286033 1.9930001
-1.0118459 0.24249476 1.9900001
-0.99104065 0.24227543 1.9882002
-0.96270537 0.24286033 1.9930001
-0.95047498 0.24460754 1.9930001
-0.92908877 0.24373129 1.9878575
-0.91145432 0.24344274 1.9930003
-0.88796866 0.24424195 1.9900001
-1.0843972 0.34308019 1.9906002
-1.0736861 0.34281611 1.9850001
-1.0558994 0.34733534 1.9810001
-0.37025863 0.36932686 1.989471
-0.35949206 0.38554221 1.9810001
-0.90679508 0.41583282 1.9930001
-0.37512216 0.40117231 1.9810001
-0.90547073 0.42980427 1.9850001
-0.90480852 0.44458923 1.9810001
-1.0850091 0.4734903 1.9930001
-0.92912203 0.47758609 1.9810001
-0.90664256 0.48203081 1.9850001
-1.0430764 0.53988379 1.9930001
-1.0297112 0.53792185 1.9912859
-1.0128638 0.53346682 1.9895717
-0.988536 0.53186262 1.9870002
-0.96880716 0.52820003 1.9885001
-0.95254123 0.53209281 1.9900001
-0.92877388 0.53048855 1.9840001
-0.91459113 0.53497636 1.9863335
-1.0641129 0.55169201 1.9915001
-1.0507187 0.54745334 1.9850005
-1.0333227 0.54010642 1.9810002
-1.0834794 0.57308668 1.9870002
-1.0729142 0.56748456 1.9850003
-0.84040159 0.59928846 1.9930001
-0.82991838 0.59928846 1.9930001
-0.81943524 0.59928846 1.9930001
-0.84850228 0.61136001 1.9930003
-0.82847714 0.61014539 1.9923335
-0.81765401 0.60878205 1.9855001
-0.84874713 0.62907588 1.985745
-0.83115447 0.63002992 1.9900001
-0.81914312 0.62509054 1.9906002
-0.84165931 0.64443624 1.9850001
-0.83286059 0.64505136 1.9810004
-0.81797469 0.64604372 1.9810001
-0.78099692 0.77575529 1.9930001
-0.78099692 0.78099692 1.9930001
0.89958626 -0.58146143 2.016
0.93286514 -0.58524358 2.00775
0.94845277 -0.58666497 2.0072
0.56930745 -0.57122326 2.0060003
0.59336513 -0.56711853 2.0111113
0.60289681 -0.56246936 2.0050001
0.74833119 -0.5630188 2.0132501
0.76460677 -0.56071162 2.0050001
0.78784502 -0.5640074 2.0105
0.85425031 -0.57477337 2.0050001
0.87710059 -0.57828879 2.0050001
0.89233416 -0.57828879 2.0050001
0.91113514 -0.57681018 2.0072
-1.0955215 -0.24168794 2.0123334
-1.0739648 -0.23026088 2.0050001
-1.0586486 -0.18734017 2.016
-0.04064928 -0.16259712 2.016
-0.037114561 -0.16259712 2.016
-0.83325845 0.23531269 2.0061002
-1.0888665 0.25387496 2.0069416
-1.072993 0.25005543 2.0086668
-1.0489129 0.24790068 2.0086668
-1.0286914 0.24811192 2.0072
-1.0089295 0.24725214 2.0050001
-0.99006981 0.24757272 2.0123334
-0.97131109 0.24485879 2.0094001
-0.94855595 0.25064135 2.0086668
-0.9314943 0.25292668 2.0105
-0.91214955 0.24829128 2.0086668
-0.88853896 0.25124526 2.0081429
-0.83525556 0.24643493 2.0132501
-1.0920722 0.27019104 2.0081432
-1.0930656 0.29031211 2.016
-1.0868834 0.34279999 2.0094001
-1.0729961 0.34748611 2.0086668
-1.0599031 0.34978563 2.0050001
-1.0780896 0.47895455 2.016
-0.91372514 0.46128097 2.016
-1.079857 0.48248929 2.016
-0.92280126 0.48688751 2.0050001
-0.83065915 0.51783645 2.016
-1.0663357 0.53933191 2.0105
-1.0472183 0.53926015 2.0118752
-1.0294347 0.53459769 2.0111113
-1.0107994 0.53232276 2.0097148
-0.98839349 0.52676815 2.0083001
-0.96881729 0.52818871 2.0095298
-0.84976661 0.53043514 2.0149353
-0.83158183 0.53102589 2.0153883
-0.81652027 0.53020799 2.016
-1.071913 0.5468514 2.0098128
-1.056953 0.54299569 2.00775
-0.85001034 0.55073774 2.0071161
-0.83037108 0.5500527 2.0110497
-0.81714219 0.55224204 2.0144286
-1.0774803 0.56071162 2.0050001
-0.85073489 0.56950027 2.0050004
-0.82982057 0.5692386 2.0053146
-0.81672472 0.56831366 2.0132501
-0.85073495 0.59059274 2.0050004
-0.829162 0.59029794 2.0083253
-0.81710953 0.58676356 2.016
-0.85276294 0.60776442 2.0050006
-0.82958519 0.60599452 2.0083001
-0.90170866 0.62223172 2.0050001
-0.84311813 0.62281764 2.0050001
-0.83374357 0.62750483 2.0050001
-0.76173216 0.66806209 2.016
-0.76729333 0.68973839 2.0105002
-0.77022922 0.71911085 2.0105
-0.77587104 0.73345441 2.0160003
-0.84778094 0.77199662 2.0105
-0.78596443 0.77187699 2.0086668
-0.78569937 0.78921479 2.0050001
0.86938334 -0.58136678 2.0280001
0.48773175 -0.56003225 2.0280004
0.70759624 -0.56092113 2.0280001
0.73604232 -0.56358796 2.0280001
0.74315381 -0.56358796 2.0280001
0.81960267 -0.57425523 2.0280001
0.82849205 -0.57425523 2.0280001
0.48891699 -0.55647647 2.0280004
0.67026085 -0.55647641 2.0280001
0.68803954 -0.55647641 2.0280001
-1.0898404 -0.24001379 2.0280001
-1.0613943 -0.1866774 2.0280001
-1.0862846 0.25779259 2.0280004
-1.0685059 0.25423685 2.0280001
-1.0507271 0.25423685 2.0280001
-1.0276146 0.25423685 2.0280001
-1.0098358 0.25068107 2.0280001
-0.98316765 0.25068107 2.0280001
-0.97250032 0.25068107 2.0280001
-0.95235103 0.25779259 2.0280004
-0.93160915 0.25690365 2.0280001
-0.9049409 0.25423685 2.0280001
-0.89605153 0.25779259 2.0280001
-0.83382571 0.25008845 2.0280001
-1.0917801 0.26878312 2.0280001
-0.94405431 0.26134837 2.0280004
-0.93694276 0.26134837 2.0280001
-0.88360631 0.26134837 2.0280001
-1.0911739 0.28934997 2.0280001
-1.0869958 0.343842 2.0280001
-1.0763286 0.34882006 2.0280001
-0.81471348 0.48580572 2.0280001
-0.83179384 0.51329935 2.0280001
-1.0702838 0.53869766 2.0280001
-1.0480603 0.53736424 2.0280001
-1.0329483 0.53158611 2.0280004
-0.84271514 0.52091885 2.0280001
-0.82538074 0.52580804 2.0280001
-0.81782472 0.52891934 2.0280001
-1.0711727 0.54225338 2.0280001
-0.90790403 0.54403132 2.0280001
-0.89107341 0.54474252 2.0280001
-0.82315844 0.54403126 2.0280001
-0.81960267 0.54580915 2.0280004
-0.76626629 0.64537042 2.0280004
-0.76982206 0.67203861 2.0280001
-0.77219248 0.6868543 2.0280004
-0.84449297 0.72359717 2.0280001
-0.78048933 0.74670959 2.0280001
-0.79471236 0.77515566 2.0280001
-1.0288837 -0.61613035 2.0530002
0.50611722 -0.56334597 2.0400002
0.71403408 -0.56334114 2.0465002
0.72531807 -0.56693596 2.0530002
0.78331923 -0.5704996 2.0400002
0.81400585 -0.57592022 2.0497503
0.83019829 -0.57682014 2.0497503
0.41035363 -0.55793697 2.053
0.43132538 -0.55675656 2.0472226
0.45040709 -0.55631661 2.0462177
0.46999848 -0.55317879 2.0476213
0.60953116 -0.55853689 2.0530005
0.67312396 -0.55973679 2.0530002
0.69211078 -0.5561924 2.0400002
0.70284122 -0.55976921 2.0400002
-1.1070195 -0.24501079 2.0400002
-0.080990851 -0.22497459 2.0530002
-1.0762784 -0.19437805 2.0530002
-1.0837704 0.25931799 2.0400002
-1.0712517 0.25717196 2.0400002
-1.0480024 0.25931799 2.0400002
-1.0297606 0.25717193 2.0400002
-1.0104461 0.25574121 2.0400002
-0.9900766 0.25624919 2.0472224
-0.9744367 0.25436023 2.0432501
-0.92639112 0.25752962 2.0400002
-0.91387242 0.25752962 2.0400002
-0.83070558 0.25195658 2.0492089
-0.81746769 0.25449127 2.0530002
-1.0726789 0.26672989 2.0530002
-1.0546808 0.26457012 2.0530002
-1.0286655 0.26260671 2.053
-1.0141854 0.26187041 2.0530002
-0.96924651 0.26341176 2.048667
-0.94964862 0.26666129 2.0448751
-0.93050939 0.26304197 2.0481253
-0.91429669 0.26367021 2.0530002
-0.89112222 0.26331365 2.0432501
-0.83218771 0.26211092 2.0513754
-1.0780782 0.28436786 2.0530002
-1.077559 0.34818253 2.0452001
-0.92668068 0.42911509 2.041625
-0.81746769 0.43447095 2.0530002
-0.82867569 0.44970188 2.0486672
-0.8169468 0.44750333 2.0517004
-0.83362854 0.46935228 2.0408673
-1.068439 0.49193972 2.0492091
-1.0528811 0.48702499 2.0530002
-0.82709861 0.49751735 2.0432503
-0.81717908 0.49390697 2.048667
-1.0718436 0.50671107 2.052316
-0.91041046 0.51162797 2.0501113
-0.88883471 0.50850171 2.0400007
-0.82941383 0.50985348 2.0431385
-0.91252106 0.52898645 2.0509481
-0.8924709 0.52905917 2.0424769
-0.90929192 0.54340988 2.045778
-0.89956522 0.5418852 2.0400002
-0.77391255 0.63172865 2.0530002
-0.77602214 0.65234518 2.0443335
-0.78291154 0.67492378 2.0530002
-0.77437717 0.66528475 2.0400002
-0.78263539 0.68987077 2.0504005
0.38559747 -0.56481886 2.0650003
0.6284911 -0.56473112 2.0780001
0.67585564 -0.56655282 2.0780001
0.68860763 -0.56655282 2.0780001
0.71593332 -0.56655282 2.0780001
0.73317826 -0.57024974 2.0650001
0.76938462 -0.57387036 2.0650003
0.34976894 -0.55926597 2.0780001
0.37092981 -0.55663627 2.0725262
0.38979432 -0.55591929 2.070353
0.40935338 -0.55337518 2.0688236
0.61442149 -0.55721551 2.0650003
0.62475914 -0.55930662 2.0736668
-1.0700744 -0.25467554 2.0780001
-1.080759 -0.19732451 2.0650001
-0.82369411 0.24982369 2.0650001
-0.8164528 0.25706497 2.0650001
-1.0705287 0.27119732 2.0715003
-1.0531092 0.26717576 2.0676003
-1.0274463 0.26961356 2.0780001
-1.0111794 0.26493448 2.0698752
-0.99058491 0.26606163 2.0707779
-0.9757607 0.26973718 2.0650001
-0.93231308 0.26611656 2.0650001
-0.90850127 0.2701056 2.0747499
-0.89105988 0.27119729 2.0715001
-0.8701455 0.27031082 2.0693336
-0.81465524 0.40533796 2.0715003
-0.82757986 0.4265219 2.0672607
-0.81645286 0.43145883 2.0650001
-0.8164528 0.44352758 2.0650001
-0.76329786 0.48821914 2.0780001
-0.76633406 0.51007974 2.0780001
-0.9142099 0.5231815 2.0650001
-0.76291299 0.52657664 2.0736668
-0.75671238 0.52499181 2.0650001
-0.76576394 0.5449053 2.0650001
-0.76576394 0.56300849 2.0650001
-0.77662587 0.6263696 2.0650001
0.35178882 -0.56249565 2.0900002
0.63578498 -0.56982458 2.0900002
0.65110916 -0.56849211 2.0900002
0.6980809 -0.56799233 2.0900002
0.29089397 -0.54503554 2.0900002
0.3088018 -0.55093849 2.0900002
0.32870269 -0.55174655 2.0900002
0.35117805 -0.55822051 2.0900002
0.48920628 -0.54783773 2.0900002
-1.075521 -0.26200935 2.0900002
-1.0846821 -0.25651264 2.0900002
-1.075521 -0.25345895 2.0900002
-1.0901788 -0.1868878 2.0900002
-0.82267278 0.25834489 2.0900002
-1.0637946 0.27520144 2.0900002
-1.0520684 0.27373567 2.0900002
-1.0265088 0.27437693 2.0900002
-1.0090371 0.27143228 2.0900002
-0.98940599 0.27483499 2.0900002
-0.92161334 0.27300277 2.0900002
-0.91306299 0.27544576 2.0900002
-0.88313645 0.27483499 2.0900002
-0.87397528 0.27666724 2.0900002
-1.0721619 0.34965119 2.0900002
-0.94726461 0.45989057 2.0900002
-0.76037687 0.45072943 2.0900002
-0.76220906 0.46905172 2.0900002
-0.77137023 0.49470299 2.0900002
-0.76953799 0.50203192 2.0900002
-1.0498697 0.53317988 2.0900002
-0.77137029 0.52951545 2.0900002
-0.77650046 0.54930353 2.0900002
-1.0870457 -0.59917361 2.1160002
-1.0425249 -0.59917361 2.1160002
-1.0154417 -0.59768957 2.1160002
-0.94474071 -0.59732443 2.1116669
-0.9370811 -0.59825641 2.1062503
0.23065975 -0.55384004 2.1105843
0.25064844 -0.54779947 2.1065462
0.27052137 -0.54475367 2.1095004
0.28812528 -0.54171413 2.1048577
0.44868872 -0.54778218 2.1062505
0.4656117 -0.5509429 2.1160002
-1.1454262 -0.27101427 2.1108005
-1.0912045 -0.26541901 2.1073337
-1.0785235 -0.26363909 2.1030002
-1.1464064 -0.25784871 2.1160002
-1.0883563 -0.25011915 2.1030002
-1.0969598 -0.19542478 2.1030002
-1.0600872 0.27838814 2.1030002
-1.0490254 0.27765068 2.1030004
-1.0305891 0.27838814 2.1030002
-1.0112311 0.27746633 2.1030002
-0.99095112 0.27838814 2.1030002
-0.96741915 0.27649599 2.1073337
-0.94586843 0.27526689 2.1073337
-0.92734593 0.27715907 2.1030002
-0.90890956 0.27838814 2.1030002
-0.89489806 0.27691326 2.1030004
-1.070235 0.29010519 2.1077676
-1.0592202 0.28196406 2.1160002
-1.0221196 0.28010902 2.1160002
-1.0116079 0.2825824 2.1160002
-0.99429429 0.28381908 2.1160002
-0.94915533 0.28010902 2.1160002
-0.92823976 0.29087928 2.1147008
-0.96646887 0.31720957 2.1160002
-1.0680338 0.32929844 2.1095006
-1.0656599 0.35162801 2.1086528
-1.0592202 0.35245505 2.1160002
-1.0221196 0.35802016 2.1160002
-1.058092 0.36675453 2.1108003
-1.0660151 0.38422555 2.1064672
-0.76612604 0.39883074 2.1160002
-0.76579374 0.40910617 2.1116669
-0.94725716 0.42514107 2.1030004
-0.76562762 0.43091631 2.1095002
-0.76983607 0.44335136 2.1160002
-0.7743246 0.48856196 2.1030002
-0.77616823 0.50331098 2.1030002
-1.1646483 -0.58419049 2.1290002
-1.1641816 -0.56972569 2.1289999
-1.1566736 -0.56858039 2.1289999
-1.1652703 -0.55681634 2.1290002
0.17182074 -0.55257112 2.1289999
0.18932025 -0.54864734 2.1290004
0.21129876 -0.54843378 2.1290002
0.22928293 -0.54686201 2.1289999
0.39008251 -0.54893583 2.1289999
0.41061315 -0.54686207 2.1290002
0.43114376 -0.54686207 2.1290002
0.45354086 -0.54872847 2.1290002
0.17731021 -0.53939635 2.1290002
0.18290949 -0.53939635 2.1290002
-1.1490948 -0.27436423 2.1290002
-1.0946573 -0.273431 2.1290002
-1.0943463 -0.25072289 2.1290002
-1.0507964 0.28556275 2.1290002
-1.0302657 0.28618491 2.1290002
-1.0106683 0.28929561 2.1290002
-0.99293721 0.28649598 2.1290002
-0.96867371 0.28257653 2.1290002
-0.7534129 0.33160123 2.1290002
-1.0514551 0.35187569 2.1289999
-0.76336712 0.35648686 2.1290002
-0.75776792 0.34715474 2.1290002
-0.7745657 0.41807884 2.1290002
-0.7745657 0.43114382 2.1290002
-1.1741854 -0.57112378 2.1430001
0.11017891 -0.542678 2.1500909
0.1312404 -0.54401696 2.1430001
0.15458989 -0.54831105 2.1429999
0.16751713 -0.54764009 2.1429999
0.19350576 -0.54294336 2.1430001
0.33440799 -0.54294336 2.1430001
0.34954199 -0.54272223 2.1489091
0.37320122 -0.54356462 2.148778
0.39094681 -0.54613096 2.1513572
0.40908548 -0.54562563 2.1504285
0.42826706 -0.54656827 2.1467144
0.44895566 -0.54788357 2.1495001
0.46355546 -0.55400646 2.1495001
0.10962542 -0.53773165 2.1560001
0.13006029 -0.53531927 2.1501496
0.14943081 -0.5361008 2.1494997
0.30998135 -0.53640312 2.1478751
0.32899532 -0.53826922 2.1489091
0.35883105 -0.53918594 2.1430001
0.36594114 -0.53884643 2.1516669
-1.1591558 -0.27616841 2.1430001
-1.1403688 -0.2254436 2.1430001
-1.1419376 -0.21858412 2.1495001
-1.0036396 -0.0018900933 2.1560001
-1.0225405 0.0056702802 2.1560001
-1.0142241 0.0034021679 2.1560001
-1.0493245 0.2943773 2.1429999
-1.030653 0.29570687 2.1429999
-1.0092018 0.29632169 2.1429999
-1.0295258 0.30998498 2.1430006
-0.76926798 0.31564558 2.1560001
-0.81305814 0.58343971 2.1429999
-0.87547266 0.66317993 2.1430001
-0.91503835 -0.57641709 2.1700001
0.047287401 -0.54924047 2.1700001
0.352889 -0.54217452 2.1700001
0.37857097 -0.54217452 2.1700001
0.38871694 -0.54471099 2.1700001
0.40774059 -0.54344273 2.1700001
0.42898369 -0.5478816 2.1700001
0.03125317 -0.53728271 2.1700001
0.053093322 -0.53560263 2.1700001
0.070387565 -0.53076029 2.1700003
0.089411229 -0.52885795 2.1700001
0.24921003 -0.53836977 2.1700001
0.27013609 -0.53519917 2.1700001
0.29867157 -0.53456503 2.1700001
0.31579286 -0.53456503 2.1700001
0.36905915 -0.53836977 2.1700001
-1.1242988 -0.16804239 2.1700001
-1.0063519 0.0038047333 2.1700001
-0.80778116 0.49035758 2.1699996
-0.79556972 0.48738632 2.1700001
-0.81459343 0.50298572 2.1700001
0.57036638 -0.60312384 2.1980002
0.61853915 -0.6050508 2.1980002
0.62817377 -0.6050508 2.1980002
0.55183363 -0.58645266 2.1933336
0.56476051 -0.59544998 2.1875
0.61722183 -0.59224153 2.1933336
0.62455314 -0.59324563 2.194
-1.0894403 -0.56972408 2.1980007
-1.0695117 -0.57391238 2.1968336
0.0038292799 -0.54184312 2.184
0.02489032 -0.54184312 2.184
0.33193231 -0.54171634 2.1886668
0.40909475 -0.54567242 2.184
-0.049492575 -0.52610356 2.1963532
-0.027298346 -0.53469259 2.1924002
-0.0097578345 -0.53056443 2.1876521
0.0092237024 -0.53277713 2.188
0.029250238 -0.53309941 2.189765
0.049321268 -0.52830213 2.1879995
0.19116595 -0.53262585 2.1900001
0.20952389 -0.53283197 2.1884215
0.22990066 -0.52996045 2.1894443
0.24892467 -0.53624344 2.1898334
0.26770598 -0.53571004 2.1880002
0.29044843 -0.53784025 2.1900001
0.30682415 -0.53791255 2.1875
0.32357416 -0.53801382 2.184
0.91005963 -0.53317761 2.1894791
0.92710054 -0.53026491 2.1928425
-0.053953573 -0.51833969 2.1980002
-1.1439443 -0.16507225 2.1980004
-1.1326936 -0.16436857 2.1886668
-1.133827 -0.15830964 2.1933334
-0.64455247 -0.12235899 2.1980002
-0.62932992 -0.12550631 2.1980002
-0.647443 -0.10983404 2.1980007
-0.62913132 -0.10967498 2.1946409
-1.0193372 -0.0019269133 2.1980002
-0.76720607 0.20575015 2.1933336
-0.79840487 0.44802576 2.184
-0.86459672 0.51120889 2.184
-0.85823745 0.5097729 2.184
-0.85775876 0.52269673 2.184
0.62635732 -0.6224789 2.2120004
0.57351446 -0.60841984 2.2120001
0.61860055 -0.61666137 2.2120001
0.62937385 -0.61515313 2.2120001
0.6418708 -0.60502625 2.2120001
-0.036844548 -0.58951271 2.2120001
0.53715467 -0.58951271 2.2120001
0.54588103 -0.58854312 2.2120001
0.6315285 -0.59791589 2.2120004
-1.0867757 -0.56430334 2.2120001
-1.0690885 -0.57027012 2.2120001
-0.098898523 -0.52164119 2.2120001
-0.065932341 -0.52164119 2.2120001
-0.043631699 -0.52261078 2.2120001
-0.030542191 -0.53085232 2.2120001
0.10859445 -0.52164119 2.2120001
0.13768226 -0.52164119 2.2120001
0.145439 -0.52358043 2.2120001
0.17258762 -0.52551961 2.2120004
0.18865517 -0.52939796 2.2120001
0.20943215 -0.53036755 2.2120001
0.23851995 -0.52939796 2.2120001
0.24860373 -0.53405201 2.2120001
0.26825416 -0.53715467 2.2120004
0.9269312 -0.52455002 2.2120001
-0.10277689 -0.51776284 2.2120001
-0.090587728 -0.51610076 2.2120001
-0.070780307 -0.51630849 2.2120001
-0.046817508 -0.51665479 2.2120001
0.11829039 -0.51776284 2.2120001
0.12216876 -0.51776284 2.2120001
-1.1460593 -0.15707412 2.2120001
-0.85130292 0.436317 2.2120001
0.57372928 -0.6176371 2.2260001
0.61861283 -0.61861283 2.2260001
0.54445732 -0.59519529 2.2260001
-1.0830603 -0.56202048 2.2260001
-0.13130538 -0.52215505 2.2260001
-0.11448565 -0.52234089 2.2260001
0.08879143 -0.52103984 2.2260001
0.10928176 -0.52103984 2.2260001
0.13074782 -0.52103984 2.2260003
0.15286437 -0.52754474 2.2260003
0.16392264 -0.52884567 2.2260001
0.20880622 -0.53079712 2.2260001
0.22051498 -0.52884567 2.2260001
0.2536898 -0.53567576 2.2260001
-0.13074782 -0.51518548 2.2260001
-0.10993224 -0.51648641 2.2260001
-0.089767158 -0.51258355 2.2260001
0.06634964 -0.51713687 2.2260001
0.55205542 -0.59920603 2.2410002
-0.17288567 -0.52062166 2.2410002
0.070305601 -0.52038634 2.2485003
0.087573081 -0.52247512 2.24475
0.10805355 -0.52455086 2.2410002
0.13948731 -0.52455086 2.2410002
0.15063149 -0.5295198 2.2510002
0.16969287 -0.53083831 2.2510002
-0.21359807 -0.51619536 2.256
-0.1901475 -0.51506519 2.2560003
-0.17033257 -0.51494545 2.2515888
0.0098546101 -0.51294678 2.2470002
0.030126275 -0.51310402 2.2474289
0.055009078 -0.5166924 2.2410002
0.066796735 -0.5166924 2.2410002
0.87027436 -0.51647145 2.2476668
-1.0482128 -0.0059332801 2.256
-0.76237822 0.028273379 2.2510002
-0.75692844 0.023647644 2.2485001
-1.0923231 0.13948731 2.2410002
-1.0923231 0.14341652 2.2410002
-1.0185463 0.21953136 2.256
-0.53356385 -0.5395366 2.2710001
-0.47085023 -0.53854114 2.2710001
-0.45525476 -0.53820938 2.2710001
0.089590952 -0.52560025 2.2710001
-0.22829099 -0.50900924 2.2710001
-0.20885596 -0.51014698 2.2710001
-0.077645488 -0.50370026 2.2710001
-0.051763657 -0.50569117 2.2710001
-0.02986365 -0.51166385 2.2710001
-0.0099545494 -0.51564568 2.2710001
0.0019909099 -0.51564568 2.2710001
0.025881831 -0.51564568 2.2710001
-0.26877284 -0.49772748 2.2710001
-0.24886374 -0.49533844 2.2710001
-0.23691829 -0.4997184 2.2710001
-0.075654581 -0.4997184 2.2710001
-1.0412459 -0.04778184 2.2710001
-1.0366005 -0.049772754 2.2710001
-1.0153641 0.025881831 2.2710001
-1.0238707 0.18986042 2.2710001
-1.017355 0.18913645 2.2710001
-1.0262555 0.20904554 2.2710001
-1.0156485 0.21018322 2.2710001
-1.0213368 0.22099102 2.2710001
-1.0163596 0.22895466 2.2710001
-1.0681641 -0.54710835 2.286
-0.10541356 -0.50462228 2.286
-0.091685742 -0.50452209 2.286
-0.066133976 -0.50301903 2.286
-0.047696631 -0.50702715 2.286
-0.01202436 -0.51504344 2.286
-0.31120187 -0.49500284 2.2860003
-0.29058871 -0.49500281 2.286
-0.13026389 -0.49500281 2.286
-0.11222735 -0.49700686 2.2860003
0.95994473 -0.49901095 2.286
0.96395284 -0.49901095 2.286
-1.0421112 -0.062125858 2.286
-1.036099 -0.062125858 2.286
-1.0401071 -0.0501015 2.286
-1.0340949 -0.054109618 2.2860003
-1.0143408 0.13255426 2.2860003
-1.0220706 0.14629638 2.2860003
-1.0117831 0.15137334 2.286
-1.0200665 0.17635727 2.286
-1.0103626 0.17076701 2.2859998
-1.0200665 0.1903857 2.286
-1.0100462 0.19038568 2.2859998
-1.0214026 0.20775422 2.286
-1.0115494 0.20992528 2.2859998
-1.0200665 0.22946487 2.286
-1.0590353 -0.53859508 2.3010001
-0.53052616 -0.53052616 2.3009996
-0.51035416 -0.5305261 2.3009996
-0.60891968 -0.5107432 2.3170004
-0.59108979 -0.50984037 2.3170006
-0.10287771 -0.5022853 2.3010001
-0.097499356 -0.50577796 2.3170002
-0.054464668 -0.5063197 2.3010001
-0.033617537 -0.51572216 2.3106003
-0.00201721 -0.51842296 2.3010001
0.00201721 -0.51842296 2.3010001
-0.60327727 -0.49562174 2.3170002
-0.59289539 -0.49494469 2.3170002
-0.37109455 -0.49263453 2.3110003
-0.35067594 -0.49296156 2.3122005
-0.17146285 -0.49825087 2.3010004
-0.15330796 -0.49825087 2.3010001
-0.10691213 -0.49825087 2.3010001
-0.61778617 -0.21153878 2.3170004
-1.0388632 -0.062533513 2.3010001
-1.0388632 -0.046395831 2.3010001
-1.0120589 0.09727931 2.3063333
-0.99650174 0.094808869 2.3010001
-1.0231624 0.11554804 2.3124287
-1.0154457 0.10923433 2.311182
-1.0222187 0.12549484 2.309
-1.0127605 0.13091254 2.3082006
-1.0091276 0.14841717 2.3046925
-0.66062003 -0.50927061 2.3330002
-0.64425802 -0.50654358 2.3330002
-0.62961817 -0.50905526 2.3330002
-0.1840737 -0.50108951 2.3330002
-0.16839336 -0.50108951 2.3330002
-0.66266531 -0.48677269 2.3330002
-0.4327777 -0.48431835 2.3330002
-0.26997474 -0.48779529 2.3330002
-0.25156739 -0.49018145 2.3330002
-0.20248108 -0.496999 2.3330002
-0.19839054 -0.496999 2.3330002
-0.61766952 -0.24543159 2.3330002
-0.6197148 -0.21066213 2.3330002
-1.0224043 0.029769948 2.3330002
-1.0144506 0.030678948 2.3330002
-1.0124054 0.04295053 2.3330002
-0.7264145 -0.51327801 2.3490002
-0.71228558 -0.51322079 2.3490002
-0.68914598 -0.50918198 2.349
-0.19563255 -0.50040746 2.3490002
-0.17298037 -0.50452602 2.3490002
-0.15856533 -0.50452602 2.3490002
-0.70221794 -0.48805174 2.3490005
-0.32330853 -0.48805171 2.3490002
-0.31918994 -0.48805171 2.3490002
-0.28830057 -0.48805171 2.3490002
-0.27388558 -0.48805174 2.3490005
-0.2491741 -0.4907974 2.3490002
-0.23681834 -0.4962889 2.3490002
-0.47363672 -0.47775528 2.3490002
0.95276475 -0.47844172 2.3490002
0.9616884 -0.47981456 2.3490002
1.1037794 -0.47981456 2.3490002
-0.61984628 -0.28212273 2.3490002
-0.63091499 -0.27002439 2.3490002
-0.61984628 -0.27079663 2.3490002
-0.62602413 -0.25535196 2.3490002
-0.61984628 -0.25535196 2.3490002
-1.0101424 0.01102326 2.3490002
-1.0140532 0.17150944 2.3490002
-1.0111114 0.25741124 2.3490002
-0.36905035 -0.48308277 2.365
-0.24257804 -0.49552268 2.365
-0.23843141 -0.49552268 2.365
-0.52869576 -0.47271618 2.365
0.93921244 -0.47893614 2.365
0.95224482 -0.47715905 2.3650002
0.96989757 -0.47727749 2.365
-0.62406832 -0.28819102 2.365
-0.62717831 -0.26745784 2.365
-1.0138519 0.12854563 2.365
-0.43002301 -0.48358878 2.3895004
-0.41424388 -0.48545945 2.3895001
-0.38260889 -0.48561898 2.398
-0.36528507 -0.48635098 2.381
-0.30692801 -0.49402797 2.398
-0.61733174 -0.3470208 2.3810003
-0.62411565 -0.33606228 2.381
-0.61889732 -0.33293125 2.381
-0.92096025 -0.49753025 2.4150002
-0.9095028 -0.48856354 2.4150004
-0.8944959 -0.48906171 2.4150004
-0.46577299 -0.48482734 2.4150002
-0.44954154 -0.48200449 2.4150004
-0.43401575 -0.48059306 2.4150004
-0.4064928 -0.48906165 2.4150002
-0.52717036 -0.47212446 2.4150004
-0.51023316 -0.4695839 2.4150002
-0.49329594 -0.47212446 2.4150002
1.0098805 -0.45942155 2.4150002
1.0247006 -0.45942155 2.4150002
-1.0042348 -0.25052944 2.4150002
-0.99435478 -0.24911799 2.4150002
-1.0098805 -0.029640101 2.4150002
-0.93225169 0.4735359 2.4150004
-0.42427862 -0.48610815 2.4320002
-0.96612483 -0.471793 2.4319999
-0.83012122 -0.46892631 2.4319997
-0.57032424 -0.47118378 2.4320002
-0.55220181 -0.47544789 2.4320002
-0.51808894 -0.47118378 2.4320002
-0.44559917 -0.47971201 2.4320002
0.92957526 -0.45839146 2.4320002
0.97008437 -0.45625946 2.4319999
0.98957735 -0.45717317 2.4320004
1.011507 -0.45656401 2.4320004
-1.0084612 -0.29280204 2.4320002
-0.99566889 -0.28569517 2.4320002
-1.0056186 -0.084571451 2.4320002
-1.0063292 -0.072489813 2.4320002
-0.90185857 0.43707094 2.4320002
-0.92388982 0.45128462 2.4320002
-0.91038674 0.44986323 2.4319994
-0.89759445 0.45839146 2.4320002
-0.94165695 0.47118378 2.4320002
-0.92842722 0.46954376 2.4319999
-0.91139001 0.46817383 2.4319997
-0.89759445 0.46265557 2.4320002
-0.62072384 -0.46607983 2.45
-0.61213249 -0.47252333 2.45
-0.59280199 -0.47467116 2.45
-0.54340184 -0.47896683 2.45
-0.52836704 -0.47467116 2.45
-0.50474083 -0.47467116 2.45
-0.49614951 -0.47896683 2.45
-0.89135087 -0.45748851 2.45
-0.99444693 -0.35009691 2.4500003
-1.0054929 -0.32432285 2.45
-0.99510771 -0.32960981 2.4500005
-1.0073339 -0.309288 2.4500003
-1.0059021 -0.14820051 2.4500003
-0.99874252 -0.15679184 2.45
-0.94719452 0.43601018 2.4500003
-0.92947483 0.43439928 2.45
-0.91068131 0.43386233 2.45
-0.94563246 0.44811615 2.4500003
-0.93397707 0.44691455 2.4500005
-0.90730619 0.44644248 2.45
-0.89833128 0.450508 2.45
-0.8784638 0.44460151 2.45
-0.95031863 0.46842295 2.4500003
-0.93860316 0.46393198 2.45
-0.90566969 0.47323927 2.4500003
-0.89994216 0.46393198 2.45
-0.93646497 -0.4606629 2.467
-0.62503088 -0.46498838 2.467
-0.60556626 -0.47796479 2.467
-0.5839389 -0.47363934 2.467
-0.57168341 -0.47508118 2.467
-0.52338231 -0.47363934 2.467
-0.94944143 -0.45633742 2.467
-0.92997682 -0.45201203 2.4669998
1.1354368 -0.43903553 2.467
1.1851797 -0.43903553 2.467
-0.99485886 -0.40875721 2.4669998
-1.0154048 -0.39469942 2.467
-0.99146032 -0.38929254 2.4669998
-1.002068 -0.20834363 2.467
-1.0013471 -0.19032082 2.467
-0.99702162 -0.1946463 2.467
-1.0013471 -0.17301893 2.467
-1.0417181 0.055510245 2.467
-0.94727862 0.43146598 2.467
-0.93021703 0.42894283 2.467
-0.910119 0.43038461 2.4669998
-0.89135659 0.43718177 2.4670002
-0.96241778 0.44984925 2.467
-0.95809239 0.452012 2.467
-0.90186119 0.44552374 2.467
-0.89321029 0.44847298 2.4669998
-0.96458054 0.46715114 2.467
-0.95809233 0.4606629 2.467
-0.90359133 0.47190914 2.467
-0.89609385 0.46210474 2.467
-0.62436289 -0.47099528 2.4850004
-0.60867757 -0.47622377 2.4850004
-0.59037799 -0.47448093 2.4850004
-1.0064747 -0.44441736 2.4850001
-0.99013585 -0.44550663 2.4850006
-1.0077819 -0.43439624 2.4850004
0.99122506 -0.43788186 2.4850004
1.0138816 -0.43613908 2.4850004
1.0304384 -0.43570337 2.4850004
1.0435095 -0.43788186 2.4850001
1.1909225 -0.4364295 2.4850004
-1.0042962 -0.26577902 2.4850001
-0.99993914 -0.27667162 2.4850001
-1.0042962 -0.25052941 2.4850004
-0.99993914 -0.22220871 2.4850001
-0.99993914 -0.2091376 2.4850001
-0.99993914 -0.1960665 2.4850001
-0.91279852 0.41173968 2.4850001
-0.9607259 0.42481074 2.4850001
-0.9512856 0.42626306 2.4850004
-0.92950046 0.42481074 2.4850004
-0.90953082 0.42698929 2.4850006
-0.89754891 0.43352482 2.4850001
-0.89537036 0.45748851 2.4850001
-0.62800771 -0.46826291 2.503
0.91941029 -0.43666503 2.503
0.93132222 -0.43478423 2.503
0.95013046 -0.43337363 2.5030003
0.99202168 -0.43307436 2.5030003
1.0091771 -0.43267542 2.5030003
1.0274794 -0.43063074 2.503
1.0510681 -0.43271533 2.503
1.2266119 -0.41472206 2.503
-0.99664956 -0.30939585 2.503
-0.99840498 -0.29403573 2.503
-0.91502172 0.41911066 2.503
-0.94574183 0.42349929 2.503
-0.93257606 0.42349926 2.503
-0.90624452 0.42788786 2.503
0.41787016 -0.48419878 2.5220001
0.45766735 -0.48419878 2.5220001
-0.84679514 -0.45324543 2.5220001
-0.83352941 -0.45766735 2.5220001
-0.80994594 -0.45471939 2.5220001
-0.7893104 -0.45678297 2.5220001
0.95039403 -0.42860913 2.5220003
1.0118797 -0.42745098 2.5220003
1.0303043 -0.426714 2.5220001
1.0502027 -0.42715618 2.5220001
1.1165314 -0.40902635 2.5220001
1.1231643 -0.40902635 2.5220001
1.2093915 -0.41787016 2.5220001
1.2285531 -0.41639623 2.5220001
-0.99713993 -0.32943207 2.5220001
-0.99713993 -0.31395537 2.5220001
-0.92786348 0.41050035 2.5220001
-0.94407707 0.426714 2.5220001
-0.93523324 0.42229208 2.5220001
-0.90812242 -0.44329438 2.5410001
-0.89549923 -0.44329438 2.5410001
-0.86654031 -0.44923469 2.5410001
-0.85020447 -0.45517498 2.5410001
-0.83089852 -0.45666003 2.5410001
-0.80862248 -0.45666003 2.5410001
-0.79080158 -0.45487794 2.5410001
0.96455514 -0.41656309 2.5410001
1.0291557 -0.41656306 2.5410001
1.0759356 -0.40319741 2.5410001
1.0952418 -0.4091377 2.5410001
1.1279132 -0.41507801 2.5410001
1.2170175 -0.41507801 2.5410001
1.2274132 -0.41433549 2.5410004
1.2585996 -0.41656306 2.5410001
1.2652824 -0.41656306 2.5410001
-0.98861331 -0.38983175 2.5410001
-0.99425662 -0.37201089 2.5410001
-0.94418842 0.41083497 2.5410001
-0.93633878 0.40468249 2.5410001
-0.95118946 0.42547354 2.5410001
-0.98915958 -0.44252646 2.5735717
-0.91000676 -0.44826639 2.5695002
-0.89080381 -0.44992375 2.5790002
-0.86722571 -0.45250767 2.5790002
-0.85106593 -0.45545495 2.5705559
-0.82946712 -0.45509738 2.5681431
-0.80956936 -0.45411149 2.5695
-0.79429984 -0.45176059 2.5638003
0.81433773 -0.41755262 2.5684445
0.83058697 -0.41591504 2.5768893
0.96644658 -0.41555032 2.5684445
1.0309643 -0.41065061 2.5673082
1.0501457 -0.40988022 2.5625916
1.0713066 -0.41324815 2.5619006
1.0907136 -0.41518927 2.5599999
-0.98619217 -0.44716486 2.598
-0.97252673 -0.44868326 2.598
0.93380785 -0.39402133 2.598
-0.90875441 0.30975088 2.598
0.93411112 -0.39705461 2.618
0.95017695 -0.39705461 2.618
-0.91575021 0.30525008 2.618
-0.034702849 -0.46039113 2.6390002
0.82644194 -0.3868725 2.6390002
0.85137653 -0.39098543 2.6390002
0.86525774 -0.39561248 2.6390002
0.81667376 -0.37710431 2.6390002
-0.91846877 0.2660552 2.6390002
-0.92849416 0.31155449 2.6390002
-0.92618054 0.3262068 2.6390004
0.81820089 -0.37996224 2.6590002
-0.92309844 0.22844356 2.6590002
-0.89044785 -0.0023494666 2.6800001
-0.89044785 0.0023494666 2.6800001
-0.92334038 0.19500573 2.6800001
-0.92803931 0.21615094 2.6800001
-0.91636825 0.09234719 2.7010002
-0.92383218 0.076389223 2.723
-0.91905791 0.071614899 2.723
-0.70363021 -0.44382828 2.7440002
-0.8972789 -0.12749539 2.7440002
-0.90209001 -0.11787309 2.7440002
-0.91171229 -0.0096222926 2.7440002
-0.91652346 0.012027866 2.7440002
-0.90843832 -0.13098979 2.7670002
-0.90965122 -0.094603732 2.7670002
-0.9193542 -0.016980156 2.7670002
-0.91443872 -0.14425638 2.789
-0.91688377 -0.13936633 2.789
0.050125461 -0.40346891 2.812
-0.88993239 -0.37717354 2.812
-0.89979315 -0.24898386 2.812
-0.90472353 -0.22926235 2.812
-0.9096539 -0.21940161 2.812
-0.91754246 -0.18883328 2.812
-0.91540593 -0.17420654 2.812
-0.90383899 -0.37363097 2.835
-0.90963811 -0.26096174 2.835
-0.91311759 -0.2470438 2.835
-0.51380992 -0.40352878 2.8590002
-0.90480679 -0.35841376 2.8590002
0.090987481 -0.3361482 2.8830001
-0.16855669 -0.31896114 2.9580002
-0.47610712 -0.36362028 2.9840002
-0.81235439 -0.2653144 3.1200001
-0.55046827 -0.31415898 3.1490002
-0.81714451 -0.27330172 3.1490002
