# .PCD v0.7 - Point Cloud Data file format
VERSION 0.7
FIELDS x y z
SIZE 4 4 4
TYPE F F F
COUNT 1 1 1
WIDTH 1451
HEIGHT 1
VIEWPOINT 0 0 0 1 0 0 0
POINTS 1451
DATA ascii
-0.98765206 0.19239317 1.0001915
-0.97169638 0.19273213 1.0001869
-0.95329756 0.18880729 1.0001814
-0.93093342 0.19086832 1.000175
-0.90822643 0.19117004 1.0001683
-0.88993049 0.19106732 1.0001631
-0.86659998 0.19576073 1.0001562
-0.84692454 0.18611294 1.0001504
-0.83445925 0.19158952 1.0001469
-0.8093527 0.18871157 1.0001395
-0.79084587 0.18933699 1.0001341
-0.77229774 0.19149241 1.0001287
-0.74912202 0.18680605 1.0001218
-0.72979468 0.1895017 1.0001163
-0.7122525 0.1875996 1.0001111
-0.68912905 0.19254351 1.0001044
-0.67249376 0.18910956 1.0000995
-0.65360558 0.18971787 1.0000941
-0.62999815 0.18874057 1.0000871
-0.6100558 0.19107376 1.0000813
-0.59095824 0.186607 1.0000758
-0.57098931 0.18916903 1.0000699
-0.54841167 0.18901952 1.0000634
-0.52806729 0.18987015 1.0000575
-0.50927019 0.18848997 1.000052
-0.48526317 0.19049911 1.0000451
-0.47048903 0.18984333 1.0000407
-0.45226818 0.19135571 1.0000353
-0.42896795 0.18543927 1.0000285
-0.41007698 0.19080579 1.0000231
-0.38789535 0.18900743 1.0000165
-0.37021956 0.18755805 1.0000114
-0.35352969 0.18963277 1.0000066
-0.32993743 0.19182433 0.9999997
-0.30997333 0.18752657 0.9999938
-0.290371 0.19061112 0.99998814
-0.26980817 0.18894836 0.99998206
-0.24925447 0.18814902 0.9999761
-0.22945291 0.18708424 0.99997032
-0.20492958 0.19163868 0.99996322
-0.18835299 0.19131504 0.9999584
-0.16880868 0.18593687 0.99995261
-0.15287508 0.18567795 0.99994797
-0.13016683 0.18623953 0.99994135
-0.11298464 0.19140123 0.9999364
-0.087547906 0.19033034 0.99992895
-0.069119744 0.18904835 0.99992353
-0.049283292 0.19014022 0.99991781
-0.029377434 0.19114845 0.99991202
-0.011810377 0.19140802 0.9999069
0.011456666 0.18944202 0.9999001
0.032375664 0.18966025 0.99989402
0.050767865 0.19022112 0.99988866
0.070991307 0.18984456 0.9998827
0.091261648 0.19148153 0.99987686
0.11026283 0.19149217 0.99987125
0.13095279 0.19192922 0.99986529
0.15015784 0.19075577 0.99985969
0.171569 0.18939942 0.99985337
0.19316064 0.18956131 0.99984705
0.2083462 0.19128686 0.99984264
0.23328765 0.19101927 0.99983537
0.24986188 0.18863827 0.99983054
0.27251613 0.18944438 0.99982393
0.2899507 0.18684918 0.99981886
0.3092885 0.18914352 0.99981314
0.32973561 0.19027264 0.99980724
0.35114405 0.18982065 0.99980104
0.36968398 0.19064659 0.99979556
0.39098632 0.19078086 0.99978936
0.40576601 0.18931289 0.99978507
0.43078718 0.19298278 0.99977779
0.45068714 0.18721746 0.99977189
0.47037688 0.18888621 0.99976617
0.48867166 0.18973276 0.99976087
0.51061332 0.18911558 0.99975449
0.5299235 0.19037455 0.99974883
0.54980052 0.18969217 0.9997431
0.57093757 0.18895502 0.99973685
0.59086937 0.18860887 0.999731
0.61084002 0.19266696 0.99972522
0.63063931 0.18799751 0.99971944
0.65095997 0.19086087 0.99971354
0.67017758 0.19062465 0.99970794
0.69019663 0.19024996 0.9997021
0.71025145 0.19068865 0.99969625
0.72864395 0.19025798 0.99969089
0.75184643 0.1900184 0.9996841
0.77056098 0.18987048 0.99967873
0.78682476 0.18983212 0.99967396
0.80865598 0.18592229 0.99966747
0.82853794 0.19132107 0.9996618
0.84976572 0.18824962 0.99965554
0.87092018 0.19165125 0.99964941
0.88908839 0.18916196 0.9996441
0.90890825 0.18894359 0.99963826
0.92794478 0.1881731 0.99963278
0.94710213 0.18512726 0.99962717
0.97170311 0.19019271 0.99961996
0.98917615 0.19031975 0.99961495
-0.98770082 0.20846882 1.0001916
-0.97170699 0.20985453 1.0001869
-0.94958961 0.21116838 1.0001805
-0.93202776 0.20947132 1.0001754
-0.91623348 0.21108852 1.0001707
-0.88870728 0.20881152 1.0001627
-0.87404186 0.20767751 1.0001584
-0.85191488 0.20951629 1.000152
-0.83185053 0.21008314 1.0001462
-0.81326091 0.20682088 1.0001407
-0.7860375 0.21177372 1.0001328
-0.77122378 0.20973414 1.0001285
-0.75158018 0.21004856 1.0001228
-0.72851384 0.20828895 1.000116
-0.71027005 0.21040709 1.0001106
-0.68961686 0.20636874 1.0001047
-0.66853684 0.20826319 1.0000985
-0.64620554 0.20672376 1.000092
-0.63190109 0.21286665 1.0000877
-0.60865152 0.20992941 1.0000811
-0.58707744 0.21210395 1.0000747
-0.56782448 0.2085849 1.0000691
-0.54610348 0.2027247 1.0000627
-0.52942395 0.20800632 1.0000579
-0.50727397 0.20885155 1.0000515
-0.49155411 0.20840073 1.0000468
-0.47113216 0.20788071 1.000041
-0.44581851 0.20776816 1.0000336
-0.43088406 0.21093667 1.0000292
-0.40821826 0.2109893 1.0000226
-0.39005932 0.213001 1.0000173
-0.36743397 0.21224281 1.0000107
-0.35485765 0.20991932 1.000007
-0.32719612 0.20603116 0.99999893
-0.31107384 0.21027148 0.99999422
-0.28874812 0.20617422 0.99998772
-0.27076328 0.21034536 0.99998248
-0.24927521 0.2108983 0.99997622
-0.22866865 0.21002668 0.9999702
-0.2085128 0.21061367 0.9999643
-0.18751593 0.21153542 0.99995822
-0.1724304 0.20737915 0.99995381
-0.14758028 0.21102571 0.99994653
-0.13038003 0.20762148 0.99994153
-0.10998615 0.21207821 0.99993557
-0.087028012 0.20776424 0.99992889
-0.071674995 0.21150237 0.99992442
-0.045304257 0.20806251 0.99991673
-0.032983925 0.21058792 0.9999131
-0.010803155 0.21078597 0.99990666
0.0079583358 0.21006799 0.99990124
0.030514983 0.2092948 0.99989456
0.048219346 0.21054772 0.99988943
0.071839951 0.20731646 0.99988252
0.088729821 0.20690545 0.99987763
0.10644438 0.21177268 0.99987251
0.12777443 0.21009414 0.99986619
0.15029913 0.21009949 0.99985963
0.16543694 0.20876202 0.99985522
0.19015461 0.21059944 0.99984807
0.21068443 0.21126233 0.99984199
0.23179984 0.20855431 0.99983591
0.24869758 0.21418513 0.9998309
0.27267259 0.20896992 0.99982399
0.29099426 0.21204363 0.99981862
0.31052351 0.21137106 0.9998129
0.330782 0.20787406 0.99980706
0.35078776 0.21006235 0.99980122
0.37164634 0.20883197 0.99979514
0.39089039 0.21338145 0.99978954
0.41167104 0.21238402 0.99978346
0.42882442 0.20873669 0.99977845
0.44992727 0.20811097 0.99977225
0.46921918 0.2103854 0.99976665
0.48923096 0.20682839 0.99976081
0.51125282 0.21056104 0.99975437
0.52979201 0.20769697 0.999749
0.55067205 0.20981495 0.99974293
0.57051474 0.20923002 0.99973708
0.59095776 0.20714569 0.99973112
0.61222816 0.21146221 0.99972492
0.63054794 0.21074907 0.99971956
0.6483534 0.21132956 0.99971443
0.67347831 0.2135815 0.99970704
0.68770707 0.21487707 0.99970287
0.70867753 0.20966327 0.99969679
0.73018575 0.21391368 0.99969047
0.75202507 0.20900242 0.99968415
0.76708466 0.21124458 0.99967974
0.78628922 0.2125127 0.99967414
0.81107783 0.2110661 0.99966687
0.83264416 0.21035372 0.99966067
0.84812266 0.21219106 0.99965614
0.86851311 0.2090088 0.99965018
0.88924533 0.21065892 0.9996441
0.91035306 0.21166146 0.99963802
0.93023491 0.20808582 0.99963218
0.95096052 0.20956536 0.9996261
0.97255379 0.2087131 0.99961978
0.99225193 0.21052122 0.99961406
-0.99100578 0.23281318 1.0001926
-0.97003502 0.22993326 1.0001864
-0.94428247 0.22758675 1.0001791
-0.93061376 0.23241767 1.000175
-0.91370016 0.22998652 1.00017
-0.89361227 0.23014566 1.0001643
-0.86887479 0.23043686 1.000157
-0.8482222 0.22973669 1.0001509
-0.82956159 0.22894961 1.0001456
-0.80932802 0.22819778 1.0001397
-0.78803051 0.23278247 1.0001334
-0.77251685 0.22843285 1.0001289
-0.75010002 0.229415 1.0001223
-0.73038089 0.2311413 1.0001166
-0.71188474 0.22855881 1.0001112
-0.69021052 0.22591111 1.0001049
-0.67159897 0.22959444 1.0000994
-0.65287495 0.23007837 1.0000939
-0.627653 0.22830272 1.0000865
-0.60715467 0.23407333 1.0000806
-0.59452248 0.23101044 1.000077
-0.56992745 0.22895753 1.0000699
-0.55037361 0.22966567 1.0000641
-0.53160203 0.22974101 1.0000587
-0.51152003 0.23096216 1.0000527
-0.49148616 0.23104417 1.000047
-0.4714269 0.22817887 1.000041
-0.44868633 0.23261674 1.0000345
-0.42639944 0.23015916 1.0000279
-0.40596169 0.22827753 1.0000219
-0.39076215 0.23094672 1.0000175
-0.3722066 0.23306985 1.0000122
-0.34979343 0.23062122 1.0000056
-0.33070368 0.22697395 1
-0.3119908 0.22825581 0.99999458
-0.29088983 0.22857445 0.99998838
-0.26799077 0.2286278 0.9999817
-0.2500239 0.23106271 0.99997652
-0.22568835 0.23188245 0.99996936
-0.21328494 0.22857185 0.99996579
-0.1942465 0.23126478 0.99996024
-0.16893362 0.22968046 0.99995285
-0.14988317 0.23005879 0.99994725
-0.12795824 0.22796869 0.99994087
-0.11055773 0.23056772 0.99993581
-0.089967355 0.23382024 0.99992979
-0.070041284 0.23186752 0.999924
-0.048399553 0.23040645 0.99991769
-0.026858594 0.22995633 0.99991137
-0.0096901692 0.22940241 0.99990636
0.01149233 0.22487031 0.99990022
0.029447718 0.23249808 0.99989498
0.050666373 0.22841075 0.99988878
0.070666499 0.23121677 0.99988294
0.086673938 0.23263574 0.99987829
0.10937422 0.22981426 0.99987161
0.13044687 0.22808418 0.99986553
0.15102442 0.2275081 0.99985945
0.17175202 0.22922322 0.99985349
0.18950562 0.23191381 0.99984825
0.20963885 0.22921997 0.99984241
0.23125127 0.22912991 0.99983609
0.24940033 0.22982876 0.99983084
0.27021241 0.22944784 0.99982476
0.2898809 0.22821333 0.99981904
0.31115261 0.23173349 0.99981284
0.32918152 0.22958156 0.9998076
0.35169029 0.22594941 0.99980092
0.37091166 0.23165691 0.99979532
0.38584813 0.22789489 0.99979103
0.40710425 0.22556102 0.99978483
0.43061316 0.23157406 0.99977791
0.44980267 0.23435327 0.99977231
0.47382933 0.23225152 0.9997654
0.49000633 0.22893651 0.99976063
0.51154238 0.22995095 0.99975431
0.53018928 0.23188914 0.99974895
0.55286044 0.22798944 0.99974227
0.56875378 0.2296982 0.99973762
0.59046811 0.22962034 0.9997313
0.61029977 0.22519043 0.99972558
0.631006 0.23033428 0.9997195
0.6484971 0.22845522 0.99971437
0.67003804 0.22950006 0.99970818
0.68963397 0.22831222 0.99970245
0.70971406 0.23158154 0.99969649
0.731363 0.22835575 0.99969029
0.75116944 0.23076354 0.99968445
0.7705285 0.23007429 0.99967885
0.78945935 0.22916877 0.99967325
0.80882174 0.22930041 0.99966764
0.82946682 0.23045075 0.99966156
0.85175949 0.23141664 0.99965513
0.87153852 0.22818772 0.99964941
0.88820887 0.22961593 0.99964452
0.90822452 0.23222341 0.99963868
0.92962402 0.22730032 0.99963236
0.94778752 0.22915313 0.99962711
0.97189856 0.22794986 0.99962008
0.99106604 0.22667466 0.99961448
-0.99056631 0.25095052 1.0001925
-0.97065824 0.25231048 1.0001867
-0.95007259 0.24674661 1.0001807
-0.92939925 0.24834549 1.0001748
-0.90778017 0.25095457 1.0001683
-0.88784021 0.24833208 1.0001626
-0.87155974 0.25139242 1.0001578
-0.84825581 0.24539593 1.000151
-0.83168387 0.24693696 1.0001462
-0.81051308 0.25056523 1.00014
-0.78899205 0.24991271 1.0001338
-0.77311027 0.2514503 1.0001291
-0.75307161 0.25204796 1.0001233
-0.72964627 0.24955368 1.0001165
-0.71008527 0.25103807 1.0001107
-0.69009417 0.25102633 1.0001049
-0.66846877 0.24999709 1.0000986
-0.65060985 0.25147647 1.0000935
-0.62944001 0.24992603 1.0000873
-0.6091525 0.25204024 1.0000813
-0.58882684 0.2469012 1.0000753
-0.56992006 0.25024366 1.0000699
-0.5488826 0.24694486 1.0000637
-0.53156942 0.25010106 1.0000587
-0.51116586 0.24717341 1.0000527
-0.48967642 0.25220346 1.0000465
-0.47050339 0.2520588 1.0000408
-0.45053753 0.25102702 1.000035
-0.42833504 0.24922006 1.0000286
-0.41171399 0.2505106 1.0000237
-0.39114934 0.24715281 1.0000176
-0.36922288 0.2482785 1.0000113
-0.34939754 0.24994747 1.0000055
-0.33055267 0.24968788 1
-0.30998579 0.24911644 0.99999404
-0.28767008 0.25390503 0.99998754
-0.2724525 0.24975717 0.99998307
-0.24734125 0.2496876 0.99997574
-0.23219088 0.24979579 0.99997133
-0.21313895 0.25638473 0.99996585
-0.19215146 0.24930753 0.99995965
-0.17289957 0.25178021 0.99995404
-0.1535226 0.24711983 0.99994838
-0.12942597 0.25216219 0.99994135
-0.11365204 0.24828346 0.99993676
-0.089282155 0.24850622 0.99992967
-0.068015717 0.24808928 0.99992347
-0.050821844 0.25084555 0.99991846
-0.029872969 0.25206718 0.99991232
-0.010189414 0.24961887 0.9999066
0.012794519 0.24804778 0.99989992
0.028108092 0.25322819 0.99989539
0.049321622 0.2477552 0.99988919
0.071466886 0.24780694 0.99988276
0.08903759 0.25401765 0.99987763
0.10783423 0.24880855 0.99987215
0.13109644 0.2504825 0.99986535
0.1521657 0.24834308 0.99985927
0.17124744 0.25151873 0.99985367
0.18677771 0.25021896 0.99984914
0.20657587 0.25024128 0.99984342
0.23423009 0.25123739 0.99983531
0.25088143 0.25352982 0.99983042
0.26865971 0.25151128 0.9998253
0.2902922 0.2498233 0.99981898
0.30983996 0.25245768 0.99981326
0.32831639 0.25270766 0.99980789
0.35490221 0.24725986 0.99980015
0.36819804 0.25135535 0.99979621
0.38945675 0.252422 0.99979001
0.41180176 0.25055885 0.99978346
0.42687315 0.25019655 0.99977916
0.44737646 0.24909069 0.99977309
0.46987396 0.25107855 0.99976653
0.48926488 0.24750862 0.99976093
0.51066369 0.24672134 0.99975473
0.52655149 0.25017881 0.99975008
0.554326 0.25215244 0.99974197
0.56820959 0.24860388 0.99973792
0.59065777 0.25119203 0.99973136
0.60915822 0.24326374 0.999726
0.63004524 0.24997017 0.9997198
0.65051097 0.2520887 0.99971384
0.67289817 0.25065765 0.9997074
0.68975741 0.24882191 0.99970239
0.70884383 0.25233734 0.99969691
0.72915113 0.25076953 0.99969095
0.74869716 0.24895386 0.99968523
0.77156448 0.24966446 0.99967855
0.79283679 0.25252396 0.99967235
0.8062737 0.25144196 0.99966842
0.82927257 0.24883707 0.99966174
0.85031891 0.25203472 0.99965554
0.86876941 0.24915063 0.99965018
0.89038759 0.2525537 0.99964386
0.91080636 0.25033337 0.9996379
0.93119061 0.25318331 0.99963206
0.9472391 0.25053263 0.99962729
0.96811759 0.25190097 0.99962121
0.98887897 0.24839312 0.99961513
-0.98902023 0.27168906 1.0001922
-0.97002846 0.26797119 1.0001867
-0.95032978 0.27013296 1.000181
-0.9284178 0.27129647 1.0001745
-0.9107458 0.27229893 1.0001694
-0.89451176 0.27027977 1.0001645
-0.86536944 0.26968899 1.0001562
-0.85191166 0.27018088 1.0001521
-0.82849044 0.26742405 1.0001453
-0.8087613 0.26870054 1.0001396
-0.78901911 0.27047393 1.0001338
-0.77183104 0.27086419 1.0001287
-0.74904388 0.26931876 1.0001222
-0.7304039 0.26949468 1.0001167
-0.71414346 0.27126265 1.0001121
-0.68924665 0.26857203 1.0001047
-0.67062986 0.27000332 1.0000993
-0.65101379 0.27271685 1.0000937
-0.62904781 0.26727223 1.0000871
-0.60727799 0.2685841 1.0000808
-0.59065008 0.27014285 1.0000759
-0.57024807 0.27109304 1.0000701
-0.54643553 0.26977888 1.0000631
-0.52833253 0.27335545 1.0000578
-0.51131099 0.27061096 1.0000528
-0.49047828 0.2698077 1.0000467
-0.47129047 0.270374 1.0000411
-0.44997218 0.26932105 1.0000349
-0.42766073 0.26943293 1.0000284
-0.40945399 0.26878178 1.0000231
-0.3905043 0.27074549 1.0000176
-0.37051639 0.26924419 1.0000117
-0.34994364 0.26967284 1.0000057
-0.32935569 0.26981956 0.99999976
-0.31118354 0.26928663 0.99999446
-0.29196104 0.27329278 0.99998891
-0.27345914 0.27363127 0.99998349
-0.2515246 0.26905605 0.99997705
-0.22996825 0.27373654 0.99997079
-0.20879894 0.27185294 0.99996465
-0.19002423 0.26993582 0.99995911
-0.16612776 0.27176178 0.9999522
-0.15010597 0.27059108 0.99994749
-0.13100134 0.2706213 0.99994189
-0.10983748 0.27298909 0.99993575
-0.089862421 0.26833877 0.9999299
-0.069486737 0.27146655 0.99992394
-0.051524185 0.27174982 0.99991876
-0.026282528 0.27041563 0.99991137
-0.010777898 0.26777118 0.99990684
0.01037404 0.27182895 0.99990076
0.029495984 0.27112818 0.9998951
0.050666302 0.26979658 0.9998889
0.069219016 0.27370334 0.99988359
0.089635521 0.27256361 0.99987763
0.10763951 0.26958281 0.99987233
0.12791301 0.27115956 0.99986637
0.15029632 0.27184358 0.99985987
0.17210691 0.26454136 0.99985349
0.18975516 0.26830822 0.99984837
0.21105568 0.2683734 0.99984217
0.2293039 0.26790419 0.9998368
0.24893433 0.27287191 0.99983114
0.27053317 0.26826388 0.99982476
0.28915638 0.27267987 0.99981934
0.31119397 0.26987168 0.99981296
0.32799721 0.26871911 0.99980795
0.34678233 0.26761818 0.99980247
0.36940911 0.27293777 0.99979597
0.3891511 0.26896107 0.99979019
0.41020507 0.26538539 0.99978399
0.42562824 0.27206367 0.99977964
0.4536953 0.26997817 0.99977136
0.47028649 0.27117309 0.99976647
0.48982558 0.27130947 0.99976075
0.51175064 0.27044192 0.99975443
0.52781707 0.26946899 0.99974978
0.54856139 0.26988801 0.9997437
0.5689919 0.26781425 0.99973774
0.58969301 0.27066225 0.99973166
0.60854614 0.27265584 0.99972624
0.63242865 0.27078009 0.99971926
0.64973825 0.2731564 0.9997142
0.6712051 0.27000844 0.99970794
0.68895936 0.27033186 0.99970269
0.70979732 0.26726013 0.99969661
0.7286222 0.2724818 0.99969119
0.7491349 0.26881218 0.99968517
0.76997471 0.26923883 0.99967909
0.79138207 0.27112871 0.99967289
0.80939865 0.26853949 0.99966764
0.82586014 0.26808509 0.99966276
0.85164589 0.26960835 0.99965525
0.87176573 0.27005911 0.99964941
0.88901168 0.26986435 0.9996444
0.90918225 0.26933208 0.99963844
0.92962497 0.2681962 0.99963248
0.95167148 0.2663421 0.99962604
0.97124559 0.26892692 0.99962044
0.99102181 0.26885965 0.9996146
-0.98722136 0.29292977 1.0001917
-0.96819252 0.28666654 1.0001862
-0.94959539 0.29090971 1.0001807
-0.93104255 0.29106337 1.0001754
-0.90952468 0.29377642 1.000169
-0.88885081 0.28926808 1.0001631
-0.87062562 0.29002696 1.0001577
-0.85280973 0.29247189 1.0001526
-0.82967746 0.28951383 1.0001458
-0.80850315 0.28970915 1.0001396
-0.7939021 0.28844953 1.0001354
-0.77102667 0.29378414 1.0001287
-0.75132418 0.29121643 1.000123
-0.73101777 0.29042578 1.0001171
-0.71138173 0.28706577 1.0001112
-0.69052982 0.29192844 1.0001051
-0.6687243 0.28745526 1.0000987
-0.64953381 0.28966632 1.0000932
-0.62995923 0.28722593 1.0000875
-0.60762846 0.28825068 1.0000811
-0.58953398 0.29035968 1.0000758
-0.57018059 0.29206914 1.0000701
-0.54840541 0.28998718 1.0000638
-0.53196138 0.28750297 1.0000589
-0.50874174 0.29005679 1.0000522
-0.49365759 0.28985077 1.0000478
-0.46942091 0.29028606 1.0000408
-0.45112079 0.28844255 1.0000354
-0.42984706 0.28818974 1.0000291
-0.41104063 0.29184172 1.0000236
-0.39076257 0.2890844 1.0000178
-0.37151012 0.28921285 1.0000122
-0.34415478 0.29020548 1.0000042
-0.32890955 0.28843912 0.99999976
-0.30818295 0.29134169 0.99999368
-0.29022399 0.28950623 0.99998844
-0.27047139 0.29156226 0.99998271
-0.24827552 0.28186727 0.99997616
-0.22741891 0.2918058 0.99997014
-0.20898803 0.29042876 0.99996477
-0.19259197 0.29198247 0.99995995
-0.16971385 0.28633413 0.99995327
-0.1517677 0.29015625 0.99994808
-0.12959644 0.29149958 0.99994159
-0.1101321 0.28672716 0.99993587
-0.09092705 0.28678331 0.99993026
-0.069603465 0.29368386 0.99992412
-0.048678182 0.28874561 0.99991798
-0.032571185 0.29226255 0.99991328
-0.0076183951 0.29097414 0.999906
0.0099244518 0.28762075 0.99990088
0.030126417 0.28946504 0.99989498
0.047730032 0.28715801 0.99988979
0.068520151 0.29091239 0.99988377
0.091524377 0.28963089 0.9998771
0.11255809 0.2926296 0.99987102
0.13336854 0.28759527 0.99986488
0.15181907 0.28917569 0.99985957
0.17255832 0.29036987 0.99985349
0.18909009 0.28957564 0.9998486
0.21048377 0.29071498 0.99984241
0.22671735 0.29048482 0.99983764
0.25059238 0.28444788 0.99983066
0.27058142 0.28961831 0.99982488
0.28926679 0.28850546 0.9998194
0.31268105 0.28795168 0.99981254
0.3304722 0.28952232 0.99980736
0.34870139 0.28882515 0.99980211
0.3694087 0.28946543 0.99979603
0.38822898 0.28990984 0.99979055
0.40942773 0.2918478 0.99978435
0.43372518 0.28829765 0.99977732
0.45282856 0.29154882 0.99977171
0.47199661 0.28835067 0.99976611
0.49558926 0.29033449 0.9997592
0.51011086 0.29382604 0.99975502
0.52652949 0.28887805 0.99975026
0.54921776 0.28953218 0.99974358
0.56920451 0.28923678 0.99973774
0.58795851 0.28866306 0.99973226
0.61114013 0.29417571 0.99972558
0.63090044 0.29034215 0.99971974
0.64889354 0.29251587 0.99971449
0.67175364 0.29444385 0.99970782
0.68991584 0.29072365 0.99970257
0.70859325 0.29211837 0.99969709
0.72982055 0.28829852 0.99969089
0.74973583 0.28897914 0.99968517
0.76449823 0.28621069 0.9996807
0.7927683 0.28770229 0.99967247
0.81088132 0.28873059 0.99966729
0.83004123 0.29230738 0.99966168
0.85108596 0.29030654 0.9996556
0.86661607 0.28974649 0.99965107
0.88906401 0.28712988 0.99964446
0.90755475 0.2875891 0.99963897
0.93118292 0.28959584 0.99963224
0.95241094 0.29128608 0.99962604
0.96791631 0.29184517 0.99962151
0.98998427 0.29145697 0.99961507
-0.98969448 0.31320754 1.0001925
-0.96939397 0.30869642 1.0001867
-0.94765139 0.3091799 1.0001802
-0.9335705 0.31224632 1.0001762
-0.9120748 0.30853948 1.0001699
-0.8907733 0.30776653 1.0001637
-0.87126088 0.3114709 1.0001581
-0.85098648 0.31088412 1.0001521
-0.82736242 0.30690008 1.0001452
-0.81035691 0.30533186 1.0001402
-0.79224449 0.30945301 1.0001349
-0.76730216 0.31085274 1.0001277
-0.74787581 0.30949521 1.0001221
-0.72814834 0.30938074 1.0001162
-0.71425873 0.30995607 1.0001122
-0.69005311 0.31191036 1.0001051
-0.66943055 0.3103621 1.0000992
-0.6512965 0.31194675 1.0000938
-0.62885273 0.30971175 1.0000873
-0.6107251 0.31006181 1.000082
-0.59311837 0.3099094 1.0000768
-0.57193202 0.30729046 1.0000707
-0.5483613 0.31041494 1.0000638
-0.53043461 0.31139058 1.0000587
-0.51180732 0.31077608 1.0000532
-0.4891257 0.3083708 1.0000465
-0.47165382 0.30859935 1.0000415
-0.44761226 0.31163964 1.0000343
-0.42488271 0.30997521 1.0000278
-0.4063502 0.30913529 1.0000224
-0.39356339 0.30862153 1.0000186
-0.37031767 0.31056452 1.0000119
-0.35370192 0.30851802 1.000007
-0.33206528 0.30894145 1.0000007
-0.31099272 0.31158057 0.99999458
-0.29547709 0.31220984 0.99999005
-0.27017328 0.31341711 0.99998266
-0.24887824 0.30952653 0.99997646
-0.22846541 0.31297657 0.9999705
-0.21227098 0.30818409 0.99996579
-0.18972224 0.31016466 0.99995917
-0.16826817 0.31191534 0.99995291
-0.15106432 0.30961156 0.99994791
-0.1268903 0.30867878 0.99994087
-0.10812878 0.31189027 0.99993539
-0.091823041 0.30861774 0.99993062
-0.069784522 0.31115016 0.99992418
-0.051023386 0.30935341 0.99991876
-0.029619005 0.31105185 0.9999125
-0.0089282198 0.31149545 0.99990648
0.0086176107 0.30851442 0.99990135
0.030364325 0.31279477 0.99989504
0.05079123 0.31021321 0.99988908
0.070555091 0.31207114 0.99988323
0.091463305 0.31040886 0.99987715
0.11151835 0.31196174 0.99987131
0.13316126 0.30947408 0.999865
0.14752033 0.30883053 0.99986082
0.17036079 0.30936503 0.99985415
0.19444866 0.30913061 0.99984711
0.21011066 0.31019774 0.99984258
0.23234569 0.31233093 0.99983603
0.2477041 0.30813813 0.99983162
0.2703625 0.31280071 0.99982494
0.29245237 0.31105292 0.9998185
0.31176427 0.30809438 0.9998129
0.33087423 0.30720112 0.9998073
0.35070315 0.30863643 0.99980158
0.36807185 0.31052932 0.99979645
0.38803512 0.31062531 0.99979073
0.40955287 0.3109093 0.99978441
0.43208542 0.31300566 0.99977785
0.44994807 0.31040153 0.99977261
0.46932411 0.30897671 0.99976701
0.48920652 0.31192505 0.99976116
0.51015383 0.31001312 0.99975508
0.53131014 0.30839136 0.99974889
0.5535391 0.30860126 0.99974245
0.56870496 0.30789503 0.99973792
0.59441417 0.31049183 0.99973053
0.60707301 0.3095552 0.99972683
0.63045609 0.31021863 0.99971992
0.65008879 0.3104203 0.9997142
0.67080289 0.30813292 0.99970824
0.68848521 0.31178546 0.99970299
0.70990151 0.30971834 0.99969679
0.72744298 0.30976778 0.99969167
0.75053799 0.31107235 0.99968499
0.7715404 0.3072587 0.99967879
0.79200095 0.31134239 0.99967283
0.80886561 0.30844259 0.99966794
0.83147699 0.31152722 0.99966139
0.85142553 0.31165674 0.99965554
0.87151021 0.3144365 0.9996497
0.89053082 0.31087241 0.9996441
0.9101432 0.31141177 0.99963838
0.92687643 0.30954093 0.99963349
0.94996226 0.31179929 0.99962682
0.97053868 0.31292769 0.99962074
0.98937434 0.3120212 0.99961525
-0.99027544 0.32858166 1.0001928
-0.96729273 0.33056793 1.0001861
-0.94859946 0.32958809 1.0001806
-0.92967951 0.32963961 1.000175
-0.91532236 0.32944214 1.0001709
-0.89057934 0.32801446 1.0001637
-0.87438053 0.32912758 1.000159
-0.84910339 0.32887876 1.0001516
-0.83013827 0.32907778 1.000146
-0.81036735 0.32949033 1.0001403
-0.78992015 0.33081475 1.0001343
-0.76610339 0.33129603 1.0001273
-0.74793422 0.33048126 1.0001221
-0.73173004 0.32912001 1.0001173
-0.70943731 0.32670277 1.0001109
-0.68706346 0.32590798 1.0001043
-0.67176557 0.33101699 1.0000999
-0.64884579 0.33026335 1.0000932
-0.62926221 0.32851505 1.0000875
-0.61095124 0.32790604 1.0000821
-0.59272414 0.33016104 1.0000768
-0.56740499 0.32976347 1.0000694
-0.55015212 0.33023724 1.0000644
-0.53369373 0.33005708 1.0000596
-0.51035446 0.33254391 1.0000527
-0.49009544 0.33111852 1.0000468
-0.46801752 0.33032998 1.0000404
-0.44856465 0.33148324 1.0000348
-0.43187541 0.32768294 1.0000298
-0.41161531 0.33353922 1.000024
-0.39014435 0.32790548 1.0000176
-0.37117606 0.33280945 1.0000122
-0.3515076 0.32994843 1.0000064
-0.33184716 0.33065975 1.0000007
-0.30991989 0.33092877 0.99999434
-0.29097599 0.32968295 0.99998879
-0.27160311 0.32951918 0.99998313
-0.25272703 0.32938519 0.99997765
-0.2296484 0.33048552 0.99997091
-0.2097594 0.33062679 0.99996507
-0.18726216 0.32978725 0.99995852
-0.17116459 0.33082527 0.99995387
-0.14824063 0.32996607 0.99994713
-0.12911312 0.33071581 0.99994159
-0.11034036 0.33424941 0.9999361
-0.090586387 0.32920969 0.99993032
-0.066886447 0.3290053 0.99992341
-0.048669431 0.32875812 0.9999181
-0.030745979 0.32806093 0.99991286
-0.010089288 0.33022746 0.99990684
0.0097106583 0.32860264 0.99990106
0.033379186 0.32839918 0.99989414
0.050307907 0.33034769 0.99988925
0.068524621 0.33133399 0.99988389
0.09113425 0.33041033 0.99987733
0.1077266 0.33306551 0.99987245
0.1276979 0.33271563 0.99986672
0.1528511 0.33108526 0.99985933
0.16880937 0.33421892 0.99985468
0.19066896 0.328403 0.99984825
0.20972875 0.32980475 0.99984276
0.22955254 0.33404002 0.99983692
0.2495122 0.3324866 0.99983108
0.2681883 0.33171761 0.99982572
0.29217529 0.3312709 0.99981868
0.31166428 0.33111238 0.99981296
0.32900336 0.33048591 0.99980795
0.3474521 0.33068809 0.99980259
0.37089571 0.32777864 0.99979568
0.3889342 0.32961565 0.99979043
0.41225937 0.33320165 0.99978364
0.43191898 0.33046132 0.99977791
0.45187172 0.3358511 0.99977207
0.47167134 0.3275364 0.99976635
0.49014232 0.33162665 0.99976099
0.51331359 0.33073986 0.99975419
0.52876383 0.3302694 0.99974966
0.54938757 0.33179387 0.9997437
0.57267821 0.33080015 0.99973691
0.58859783 0.33051103 0.99973226
0.60608786 0.32944795 0.99972713
0.62803757 0.32928824 0.99972069
0.64285129 0.32962406 0.9997164
0.67192453 0.32772428 0.99970794
0.68825519 0.32749423 0.99970317
0.70438588 0.33092102 0.99969852
0.73077959 0.32779568 0.99969077
0.74760175 0.33114883 0.99968588
0.7712577 0.32691419 0.99967897
0.78947574 0.32767615 0.9996736
0.81077057 0.32876199 0.99966741
0.82996595 0.32885957 0.9996618
0.8498866 0.33254141 0.99965596
0.86774069 0.32976013 0.99965084
0.89087534 0.32620978 0.99964404
0.90623915 0.32569194 0.99963963
0.93008888 0.3292993 0.9996326
0.95092571 0.33003291 0.99962652
0.96824348 0.32861429 0.99962151
0.98752558 0.3290782 0.99961591
-0.99059099 0.35008654 1.0001929
-0.97090924 0.34752285 1.0001872
-0.95053774 0.34627765 1.0001812
-0.93046904 0.35047957 1.0001754
-0.91029012 0.34850809 1.0001695
-0.88750345 0.35396963 1.0001628
-0.87227923 0.34947506 1.0001584
-0.85075468 0.35142565 1.0001521
-0.8310346 0.3490665 1.0001464
-0.80962926 0.35086548 1.0001402
-0.78493077 0.35254681 1.0001329
-0.77334797 0.34901571 1.0001295
-0.75123286 0.3495844 1.000123
-0.72886831 0.35002464 1.0001166
-0.70922387 0.3505199 1.0001109
-0.68922061 0.35270739 1.000105
-0.66867876 0.35007715 1.0000989
-0.64620781 0.35147876 1.0000925
-0.63135499 0.35062632 1.0000882
-0.60665983 0.34737435 1.0000809
-0.59159023 0.35349506 1.0000765
-0.57341307 0.35154691 1.0000713
-0.55092305 0.34887853 1.0000646
-0.53122586 0.35158166 1.0000589
-0.51248676 0.3493194 1.0000534
-0.49340048 0.35120508 1.0000479
-0.47176939 0.34852561 1.0000416
-0.45260853 0.3510063 1.000036
-0.43036443 0.34915131 1.0000296
-0.41020635 0.35294127 1.0000236
-0.39064407 0.35262883 1.0000179
-0.37290961 0.3492105 1.0000128
-0.35095733 0.34903613 1.0000063
-0.33148241 0.34846449 1.0000007
-0.30995855 0.34265852 0.9999944
-0.29350287 0.35182869 0.99998957
-0.26685709 0.34841284 0.99998182
-0.25017703 0.35304514 0.99997693
-0.22883734 0.34694585 0.99997073
-0.20973703 0.34602219 0.99996513
-0.19079913 0.35106516 0.99995965
-0.17003018 0.34900552 0.99995357
-0.14845265 0.34945962 0.99994725
-0.12783343 0.35045955 0.99994129
-0.11060403 0.35040805 0.99993622
-0.092251256 0.34828091 0.99993086
-0.07069575 0.35128334 0.9999246
-0.048614915 0.34838948 0.99991816
-0.028708281 0.34874946 0.99991232
-0.010581558 0.35066396 0.99990708
0.010884257 0.35047764 0.99990076
0.02998963 0.35228884 0.99989527
0.050767817 0.35058972 0.99988919
0.072226286 0.348726 0.99988288
0.086055242 0.3473013 0.99987882
0.11036631 0.34972656 0.99987179
0.1285098 0.35085869 0.99986655
0.152169 0.35191643 0.99985963
0.17049573 0.35307196 0.99985427
0.18906818 0.34580642 0.99984878
0.20788623 0.34913599 0.9998433
0.22880758 0.35096443 0.99983722
0.24919735 0.34713203 0.99983126
0.26997644 0.35108703 0.99982518
0.29042059 0.349298 0.99981922
0.3101446 0.34723791 0.9998135
0.32956842 0.35075948 0.99980789
0.34945306 0.34949642 0.99980205
0.37203145 0.34933323 0.9997955
0.38966316 0.35056061 0.99979037
0.40829211 0.35037977 0.99978489
0.42778099 0.3505531 0.99977916
0.45000455 0.3474088 0.99977273
0.46788123 0.35116005 0.99976748
0.48760042 0.34872314 0.99976176
0.507945 0.35202068 0.9997558
0.53258723 0.35046408 0.99974865
0.55283284 0.34892008 0.99974269
0.56674457 0.35057455 0.99973863
0.58662492 0.35171717 0.99973291
0.60942149 0.34954494 0.99972624
0.62907273 0.34928584 0.99972051
0.64849907 0.35052532 0.99971479
0.66995806 0.34954903 0.99970859
0.68979383 0.34937525 0.99970275
0.70867103 0.35003647 0.99969727
0.73143291 0.34912592 0.99969059
0.75022978 0.34995028 0.99968511
0.77177233 0.34826156 0.99967891
0.78859198 0.35105714 0.9996739
0.80754381 0.35007206 0.99966842
0.82776725 0.34731597 0.99966258
0.8533361 0.34763849 0.99965507
0.86979783 0.34941778 0.9996503
0.88977545 0.35064602 0.99964446
0.90879571 0.35089707 0.99963886
0.92820978 0.35359702 0.99963325
0.94866866 0.34918049 0.99962729
0.96630234 0.34789425 0.99962217
0.98676139 0.35093763 0.99961621
-0.99220383 0.37277013 1.0001935
-0.97089565 0.37102565 1.0001873
-0.94985616 0.37005317 1.0001811
-0.92762476 0.36672831 1.0001745
-0.91528314 0.37227267 1.0001711
-0.89237887 0.3713716 1.0001644
-0.87028188 0.37055761 1.000158
-0.84839189 0.37205255 1.0001516
-0.8294493 0.36778852 1.0001459
-0.80816019 0.37037417 1.0001398
-0.7926569 0.36786336 1.0001352
-0.77284729 0.37207019 1.0001295
-0.74593413 0.371564 1.0001216
-0.73022932 0.36823243 1.0001171
-0.70925766 0.36938757 1.0001109
-0.68994999 0.37059194 1.0001054
-0.66874093 0.37139642 1.0000992
-0.65085 0.37024885 1.0000939
-0.62738132 0.36854851 1.000087
-0.61160749 0.36707267 1.0000825
-0.58959818 0.37247011 1.0000761
-0.5723899 0.37143707 1.000071
-0.55088127 0.3699373 1.0000647
-0.53244507 0.36923516 1.0000594
-0.50997663 0.36927184 1.0000528
-0.49312314 0.37175554 1.0000479
-0.46947449 0.36847326 1.000041
-0.44888785 0.37098074 1.000035
-0.4308342 0.36996773 1.0000297
-0.41237646 0.37000793 1.0000243
-0.39132982 0.36940193 1.0000181
-0.3665649 0.37550458 1.000011
-0.3471218 0.3689383 1.0000052
-0.32678577 0.37087464 0.9999994
-0.31056958 0.37107661 0.9999947
-0.28966528 0.37019867 0.99998856
-0.26941943 0.3746196 0.99998266
-0.25589079 0.36993894 0.99997866
-0.22923537 0.36937255 0.99997091
-0.21352758 0.36935988 0.99996632
-0.18520898 0.36968344 0.99995804
-0.17167175 0.37471631 0.99995416
-0.15238254 0.36939499 0.9999485
-0.1258969 0.36955592 0.99994075
-0.11006181 0.37026238 0.99993616
-0.08773341 0.3686372 0.99992961
-0.069172166 0.36976448 0.99992424
-0.053048275 0.37185562 0.99991959
-0.029897835 0.37604833 0.9999128
-0.0077593387 0.36802843 0.9999063
0.0088157896 0.37384027 0.99990147
0.031513147 0.36987722 0.99989486
0.045759764 0.36905956 0.99989069
0.069747239 0.36923084 0.99988365
0.090643182 0.36899492 0.99987757
0.11525095 0.37191123 0.99987048
0.1280271 0.36963958 0.99986672
0.14480491 0.36724013 0.99986184
0.16948648 0.36943203 0.99985456
0.1915552 0.36988285 0.99984813
0.20881324 0.3682324 0.99984312
0.2303865 0.37420321 0.99983686
0.24934499 0.36749929 0.99983132
0.27136272 0.37550974 0.99982494
0.28880006 0.36915496 0.99981976
0.3060326 0.36960185 0.99981475
0.33059171 0.36754915 0.9998076
0.34881824 0.37246418 0.99980241
0.36858717 0.37126741 0.99979657
0.38753143 0.37150022 0.99979109
0.41018212 0.370915 0.99978441
0.43040442 0.37376726 0.99977857
0.45146352 0.36869195 0.99977231
0.47220576 0.36705768 0.99976635
0.48836851 0.3681035 0.99976158
0.51061851 0.36830813 0.99975514
0.5253979 0.37197441 0.99975079
0.5476504 0.37001479 0.9997443
0.57061017 0.36735365 0.99973762
0.59106386 0.37031093 0.99973166
0.60945576 0.36994407 0.9997263
0.6313715 0.3724457 0.99971992
0.64966697 0.37035498 0.99971449
0.67417753 0.3676779 0.99970734
0.69176823 0.36977199 0.99970222
0.70848745 0.36889347 0.99969733
0.73295105 0.37245011 0.99969035
0.75358933 0.37068129 0.99968427
0.77379096 0.36719343 0.99967837
0.79052806 0.37220722 0.99967355
0.81107205 0.36938697 0.99966741
0.82897109 0.36918566 0.99966228
0.85230482 0.37155831 0.99965554
0.8702687 0.36945057 0.99965024
0.88669604 0.37081569 0.99964541
0.90986156 0.37036726 0.99963868
0.92878175 0.37261114 0.99963313
0.94736028 0.37035403 0.99962771
0.96975553 0.36896428 0.99962115
0.99150914 0.37110507 0.99961489
-0.98874587 0.3894816 1.0001926
-0.96920598 0.38839585 1.0001869
-0.94865781 0.39030907 1.0001808
-0.92799795 0.39002696 1.0001748
-0.91208416 0.39132011 1.0001702
-0.88849688 0.3905437 1.0001633
-0.86981773 0.39004886 1.0001578
-0.85227257 0.39461881 1.0001528
-0.82724983 0.38947377 1.0001454
-0.80997533 0.38883087 1.0001404
-0.78902549 0.38877359 1.0001342
-0.77081519 0.39056954 1.000129
-0.75030053 0.3912788 1.000123
-0.7271325 0.39123666 1.0001162
-0.71045458 0.39188689 1.0001113
-0.68844908 0.38958082 1.0001049
-0.67349082 0.38851699 1.0001006
-0.64947712 0.38922423 1.0000936
-0.63226229 0.39034086 1.0000886
-0.60900247 0.38989335 1.0000818
-0.59188074 0.38936764 1.0000768
-0.57028151 0.39126489 1.0000706
-0.55230719 0.38833329 1.0000653
-0.52976304 0.389927 1.0000587
-0.51279253 0.39131242 1.0000536
-0.48682591 0.38794059 1.0000461
-0.46843013 0.39014125 1.0000408
-0.44687939 0.38760585 1.0000346
-0.42656165 0.38622132 1.0000285
-0.4098438 0.38991594 1.0000237
-0.3898899 0.38762897 1.0000179
-0.37477291 0.39163446 1.0000135
-0.35125351 0.38848901 1.0000067
-0.33241796 0.38739982 1.0000012
-0.3096076 0.38724756 0.99999446
-0.28991142 0.39005068 0.99998873
-0.27010751 0.39176056 0.99998295
-0.25119013 0.39050493 0.99997741
-0.23105296 0.39315799 0.99997157
-0.20729095 0.38902196 0.99996459
-0.18792459 0.39175054 0.99995899
-0.1693339 0.39046907 0.99995357
-0.1474476 0.38843232 0.99994719
-0.12699862 0.39181024 0.99994117
-0.11091124 0.39032865 0.99993652
-0.086875737 0.38714451 0.99992949
-0.073057339 0.3881847 0.99992549
-0.045578901 0.39009809 0.99991745
-0.030309053 0.38998848 0.99991298
-0.011094955 0.39070445 0.99990737
0.0099002235 0.39145216 0.99990129
0.028904885 0.39034691 0.99989569
0.05085396 0.39188808 0.99988937
0.070639029 0.38835773 0.99988353
0.089320384 0.39170408 0.99987805
0.11329947 0.38938162 0.99987113
0.13089731 0.38875845 0.99986601
0.15271544 0.38989836 0.99985957
0.17373244 0.39201453 0.99985349
0.19223669 0.389835 0.99984813
0.2097746 0.39159325 0.999843
0.22929396 0.38805392 0.99983728
0.25088218 0.39212689 0.99983096
0.27173233 0.38828349 0.99982488
0.29022205 0.38764161 0.99981952
0.31081378 0.3919979 0.99981356
0.33178982 0.39063707 0.99980736
0.35037956 0.38918477 0.99980199
0.36821625 0.38851783 0.99979675
0.38877872 0.39098898 0.99979079
0.41022414 0.38939053 0.99978447
0.42832837 0.38912365 0.99977922
0.44685638 0.38514575 0.9997738
0.47191104 0.39070866 0.99976647
0.4907949 0.39083019 0.99976099
0.50987828 0.39148128 0.99975538
0.5306747 0.39057693 0.99974942
0.5493598 0.39490533 0.99974394
0.57048821 0.39082828 0.99973774
0.58716822 0.39229351 0.99973285
0.61282212 0.39086074 0.99972546
0.63144475 0.38889229 0.99971998
0.65100431 0.3909896 0.99971426
0.67198962 0.38896823 0.99970818
0.68924117 0.39002186 0.99970317
0.71169549 0.39090458 0.99969661
0.72785127 0.38865605 0.99969184
0.74984467 0.3903538 0.99968541
0.77125835 0.38760716 0.99967921
0.78892165 0.38623926 0.99967402
0.80742288 0.38969439 0.9996686
0.82731712 0.38697153 0.99966288
0.84631789 0.38664907 0.99965721
0.8696366 0.38768396 0.99965048
0.89033687 0.38998809 0.99964452
0.90734446 0.39005908 0.99963951
0.93043375 0.39251193 0.99963272
0.94989002 0.39132875 0.99962711
0.97011888 0.3843722 0.99962109
0.99367875 0.3957468 0.99961436
-0.9895969 0.4083758 1.0001929
-0.96989989 0.41333029 1.0001872
-0.94702685 0.41137651 1.0001805
-0.92706096 0.41012213 1.0001746
-0.91118598 0.41140175 1.00017
-0.89225435 0.41048899 1.0001645
-0.8705458 0.41300836 1.0001581
-0.84942025 0.41142532 1.000152
-0.82708925 0.40923038 1.0001454
-0.81150895 0.40840942 1.0001409
-0.78798133 0.40806136 1.000134
-0.76825553 0.41236064 1.0001283
-0.74812466 0.41092086 1.0001224
-0.72773468 0.40920919 1.0001165
-0.70792598 0.40618765 1.0001106
-0.68767595 0.41299155 1.0001048
-0.66856098 0.40800136 1.0000992
-0.64687759 0.40823528 1.000093
-0.62815958 0.40916789 1.0000875
-0.60766119 0.41126975 1.0000815
-0.59141994 0.41302061 1.0000768
-0.5731312 0.40994424 1.0000714
-0.55219442 0.41067082 1.0000653
-0.53216189 0.40950367 1.0000594
-0.5142386 0.40784454 1.0000541
-0.4934532 0.40913162 1.0000482
-0.47243321 0.40822518 1.000042
-0.45389652 0.41209242 1.0000366
-0.42951754 0.40928513 1.0000296
-0.41253355 0.41010877 1.0000246
-0.39388743 0.40710774 1.0000191
-0.36814886 0.40908775 1.0000117
-0.3500163 0.41082692 1.0000063
-0.32800394 0.41127509 0.99999988
-0.309984 0.40805474 0.99999464
-0.28828666 0.40999603 0.99998832
-0.27252132 0.41039369 0.99998373
-0.25216648 0.41312265 0.99997777
-0.2295026 0.40926859 0.99997115
-0.21262752 0.40748668 0.99996626
-0.18812627 0.40928492 0.99995911
-0.17143203 0.40729964 0.99995422
-0.15006003 0.41288429 0.99994797
-0.13011505 0.40662435 0.99994218
-0.11148039 0.40790436 0.99993676
-0.093487762 0.40947732 0.99993145
-0.068226524 0.40874347 0.99992412
-0.050207436 0.40942189 0.99991888
-0.031989876 0.41033843 0.99991357
-0.01070571 0.41142157 0.99990731
0.0098604439 0.4058044 0.99990135
0.030437917 0.41053948 0.99989539
0.051633324 0.41256359 0.99988919
0.070695922 0.40974042 0.99988359
0.092837505 0.41120061 0.99987715
0.10934116 0.40770903 0.99987227
0.1298939 0.40793228 0.99986631
0.14785321 0.40974271 0.99986106
0.17111297 0.40517741 0.99985427
0.19440189 0.41351244 0.99984747
0.21019895 0.40850782 0.99984294
0.23092274 0.40935895 0.99983686
0.25191349 0.40724674 0.99983078
0.26697889 0.40956312 0.99982637
0.28866866 0.40942022 0.99982005
0.31031841 0.40859669 0.99981374
0.32948345 0.4123489 0.99980813
0.3485269 0.40964007 0.99980253
0.36647588 0.40895957 0.99979728
0.39019865 0.41041991 0.99979037
0.41050798 0.41122577 0.99978453
0.43294582 0.40742344 0.99977797
0.45155638 0.40746555 0.99977249
0.46801478 0.40773597 0.99976772
0.48873848 0.4108519 0.99976164
0.50915074 0.41060922 0.99975568
0.53210622 0.4077861 0.999749
0.54750681 0.41254634 0.99974447
0.57162851 0.40859985 0.99973744
0.5906294 0.41293979 0.99973196
0.61008447 0.41142011 0.99972624
0.63062966 0.40798599 0.99972028
0.64765865 0.40759492 0.99971527
0.66716468 0.41264233 0.99970967
0.6904614 0.40827882 0.99970287
0.71078253 0.41236293 0.99969691
0.73164767 0.41332477 0.99969083
0.74904162 0.40705383 0.9996857
0.76991433 0.40808883 0.99967963
0.78566003 0.40963036 0.9996751
0.80632359 0.41093305 0.99966902
0.82822496 0.41157547 0.9996627
0.84903866 0.41009432 0.99965662
0.87234074 0.41023296 0.99964982
0.8921206 0.40854257 0.99964398
0.90954477 0.40873763 0.99963897
0.93025404 0.40850934 0.99963289
0.94767082 0.41471043 0.99962777
0.97090727 0.41049695 0.99962097
0.98701793 0.40523982 0.99961632
-0.99141484 0.43004203 1.0001935
-0.97221243 0.42767462 1.0001879
-0.94934994 0.42784595 1.0001812
-0.93104565 0.43036446 1.0001758
-0.90966684 0.42993024 1.0001696
-0.8943069 0.42696804 1.0001651
-0.87028348 0.43003425 1.0001581
-0.84982896 0.42696857 1.0001521
-0.83254707 0.42900777 1.0001471
-0.81334013 0.43280685 1.0001415
-0.78851151 0.43383697 1.0001342
-0.77384961 0.42961794 1.0001299
-0.75192153 0.4297618 1.0001236
-0.73363447 0.43218383 1.0001183
-0.70828027 0.42868978 1.0001109
-0.68931019 0.43123692 1.0001054
-0.6723308 0.42933494 1.0001004
-0.65210146 0.42822683 1.0000944
-0.63167572 0.43074688 1.0000885
-0.60909063 0.4336679 1.000082
-0.59437317 0.42978835 1.0000777
-0.57126319 0.42817643 1.0000709
-0.54887277 0.43051884 1.0000644
-0.53079283 0.43024397 1.0000591
-0.51060879 0.4288002 1.0000532
-0.49154878 0.42700756 1.0000477
-0.46763122 0.43109834 1.0000407
-0.44734153 0.42894921 1.0000348
-0.42926687 0.4293651 1.0000296
-0.40617144 0.42872894 1.0000228
-0.39335763 0.42760253 1.0000191
-0.37051487 0.42931718 1.0000124
-0.35092399 0.42816103 1.0000067
-0.32991815 0.42711183 1.0000005
-0.30880308 0.42907947 0.99999434
-0.28937927 0.42927718 0.99998868
-0.27155972 0.42838669 0.99998349
-0.25262651 0.42879725 0.99997795
-0.23032619 0.42582765 0.99997145
-0.21004982 0.43093088 0.99996555
-0.18638946 0.43112156 0.99995863
-0.16867849 0.43034574 0.99995345
-0.14739771 0.43042955 0.99994725
-0.12750965 0.42878297 0.99994147
-0.10826214 0.42738295 0.99993587
-0.087084234 0.42768997 0.99992967
-0.070388913 0.43138301 0.99992478
-0.051263981 0.43071845 0.99991924
-0.033702686 0.43178764 0.99991411
-0.009556191 0.43232161 0.99990708
0.010310621 0.43018579 0.99990129
0.028718852 0.42766544 0.99989593
0.053280253 0.43103847 0.99988878
0.073713936 0.43200761 0.99988282
0.091111563 0.43078774 0.99987769
0.10897177 0.43289733 0.99987245
0.13274217 0.4287304 0.99986553
0.15171751 0.42581353 0.99986005
0.17043321 0.43091273 0.99985456
0.18767388 0.42978904 0.99984956
0.21032231 0.42935351 0.99984288
0.23255658 0.43041289 0.99983644
0.25169373 0.42671037 0.99983084
0.27139774 0.42981744 0.99982512
0.28882995 0.42770889 0.99981999
0.31100217 0.43068799 0.99981356
0.329193 0.43118441 0.99980831
0.35453776 0.42587942 0.99980092
0.37105662 0.43282107 0.99979603
0.3878831 0.43362054 0.99979115
0.41045001 0.43186039 0.99978459
0.42676818 0.42799154 0.99977982
0.44978666 0.4328132 0.99977303
0.47202343 0.42913121 0.99976659
0.49067003 0.42911583 0.9997611
0.50621599 0.43185902 0.99975657
0.53189856 0.43110079 0.99974918
0.55173618 0.42622051 0.99974334
0.56607252 0.43016532 0.99973917
0.59081763 0.42924094 0.9997319
0.61268067 0.42876536 0.99972558
0.62704426 0.42989409 0.99972141
0.64957917 0.4318136 0.99971485
0.66957992 0.42645758 0.99970901
0.68889296 0.42918333 0.99970329
0.71197736 0.43232086 0.99969661
0.72985619 0.42975768 0.99969137
0.75093049 0.43098727 0.99968529
0.77078229 0.43195385 0.99967945
0.79042941 0.43142545 0.99967372
0.81067085 0.42990136 0.99966776
0.82677329 0.42906842 0.99966311
0.84994781 0.43072692 0.99965632
0.87129682 0.42613152 0.99965012
0.8892597 0.42650104 0.99964488
0.90807348 0.42749482 0.99963939
0.93204194 0.42910093 0.99963236
0.95005691 0.42724979 0.99962711
0.97088724 0.43400103 0.99962103
0.98903084 0.42691204 0.99961579
-0.9898628 0.4483676 1.0001931
-0.9737547 0.44976175 1.0001884
-0.94826996 0.44706154 1.000181
-0.93018776 0.45147523 1.0001757
-0.90989494 0.4495886 1.0001698
-0.88919491 0.44952154 1.0001637
-0.87180185 0.45276713 1.0001587
-0.84595746 0.45189118 1.0001512
-0.82884008 0.45159888 1.0001462
-0.80932385 0.44884324 1.0001404
-0.78878981 0.44753888 1.0001345
-0.77119428 0.44804803 1.0001292
-0.75345939 0.45107648 1.0001241
-0.7319091 0.44814533 1.0001178
-0.71086627 0.4521642 1.0001117
-0.689062 0.44822913 1.0001054
-0.66927308 0.44849035 1.0000995
-0.65254194 0.45294365 1.0000947
-0.63092554 0.45021543 1.0000883
-0.61215872 0.44767046 1.000083
-0.59049547 0.44826168 1.0000765
-0.56688833 0.45149025 1.0000696
-0.55082363 0.45272312 1.0000651
-0.53126705 0.45060116 1.0000594
-0.50793391 0.44624949 1.0000525
-0.49016178 0.44953042 1.0000473
-0.4706156 0.45092332 1.0000416
-0.45031396 0.45055398 1.0000358
-0.42918754 0.453251 1.0000296
-0.41169551 0.45204321 1.0000244
-0.39075494 0.44966325 1.0000184
-0.37191767 0.45209649 1.0000129
-0.35289845 0.45107847 1.0000073
-0.32914105 0.45057535 1.0000004
-0.30901092 0.44991004 0.99999446
-0.28834566 0.45186076 0.99998844
-0.27429307 0.44970858 0.99998432
-0.25009745 0.4529857 0.99997735
-0.22944076 0.44999871 0.99997127
-0.20879509 0.44930118 0.99996525
-0.18874222 0.44844943 0.99995941
-0.17166457 0.44996643 0.9999544
-0.14828111 0.4480156 0.99994761
-0.13233583 0.44841552 0.99994296
-0.10827922 0.44716337 0.99993593
-0.087349787 0.44757161 0.99992979
-0.070654467 0.45133072 0.99992496
-0.049938701 0.45139661 0.99991888
-0.02930608 0.44749767 0.99991286
-0.010209758 0.44959033 0.99990731
0.0089016268 0.44775224 0.99990171
0.028411677 0.45210999 0.99989599
0.052257508 0.44779426 0.99988908
0.07297226 0.45002359 0.999883
0.088398419 0.44669199 0.99987859
0.11097065 0.45057151 0.99987191
0.13381171 0.45211822 0.99986535
0.14873964 0.45073122 0.99986094
0.16940685 0.45178971 0.99985486
0.19037457 0.45081446 0.99984878
0.2111318 0.45093039 0.9998427
0.23171158 0.44711867 0.99983674
0.24883212 0.44872811 0.99983174
0.27185506 0.45031151 0.99982506
0.28818741 0.44919965 0.99982029
0.30842265 0.44812465 0.99981433
0.33099413 0.44912308 0.99980778
0.35308984 0.45063782 0.99980134
0.3725152 0.45115429 0.99979573
0.38573116 0.44808704 0.9997918
0.40961316 0.45069838 0.99978489
0.4317748 0.45414752 0.99977851
0.45526052 0.44995636 0.99977154
0.46519998 0.45210609 0.99976867
0.49202538 0.44907576 0.99976081
0.51077378 0.45082828 0.99975532
0.53244627 0.45041686 0.999749
0.5494954 0.45123991 0.999744
0.56994212 0.45218483 0.99973804
0.59226793 0.45258743 0.9997316
0.61085188 0.45216581 0.99972612
0.62859386 0.45142609 0.99972099
0.65132976 0.45228356 0.99971431
0.66854155 0.44664156 0.99970931
0.68753958 0.44974571 0.99970382
0.71040559 0.44979554 0.99969715
0.73098469 0.4494558 0.99969107
0.75187123 0.44669747 0.99968499
0.77237689 0.44827008 0.99967903
0.78754598 0.45082578 0.99967462
0.80701053 0.44800007 0.9996689
0.83093566 0.44654295 0.99966198
0.85020113 0.45023447 0.99965638
0.86914927 0.44661856 0.99965078
0.89194953 0.44733614 0.99964422
0.91118288 0.44687897 0.99963862
0.93028075 0.45101053 0.99963301
0.94993383 0.44914424 0.99962729
0.97162116 0.44963619 0.99962097
0.99518669 0.4494251 0.99961406
-0.98907018 0.47143352 1.0001929
-0.96794683 0.46941838 1.0001868
-0.94781256 0.47479716 1.000181
-0.9298175 0.47318885 1.0001757
-0.90743238 0.47316039 1.0001692
-0.88835794 0.4699477 1.0001636
-0.87111449 0.47118452 1.0001585
-0.84897345 0.47255704 1.0001521
-0.83239645 0.47148985 1.0001472
-0.81060189 0.47231793 1.0001409
-0.79128659 0.46826237 1.0001352
-0.76852542 0.47147727 1.0001286
-0.74988806 0.46975765 1.0001233
-0.73213077 0.47250596 1.000118
-0.71064168 0.46840426 1.0001117
-0.69092262 0.46883941 1.0001059
-0.66972673 0.47009546 1.0000998
-0.65197361 0.46843073 1.0000945
-0.62581658 0.47255909 1.000087
-0.60699379 0.46698275 1.0000814
-0.59046805 0.47257343 1.0000768
-0.57249415 0.47102213 1.0000715
-0.54542196 0.47218031 1.0000635
-0.53235269 0.47057372 1.0000597
-0.51222593 0.4676879 1.0000539
-0.48525867 0.47222462 1.000046
-0.4712669 0.46680868 1.0000418
-0.44755623 0.47201845 1.000035
-0.42981547 0.47435731 1.0000298
-0.41454849 0.47105533 1.0000254
-0.39223582 0.46740013 1.0000188
-0.36944261 0.46808326 1.0000122
-0.34861231 0.47069895 1.0000062
-0.32922947 0.47144967 1.0000005
-0.30716982 0.46961707 0.99999404
-0.2916913 0.47090974 0.99998951
-0.26779008 0.4707028 0.99998254
-0.25162485 0.46996838 0.99997783
-0.23135503 0.47066492 0.99997193
-0.21009311 0.46916544 0.99996573
-0.18935846 0.47136864 0.99995971
-0.17039782 0.47003943 0.99995416
-0.15046556 0.47339812 0.99994832
-0.12909918 0.47285002 0.99994212
-0.11127188 0.47112694 0.99993694
-0.09194652 0.46971607 0.99993128
-0.072872818 0.4706997 0.99992573
-0.050463382 0.47035328 0.99991918
-0.031125225 0.4679817 0.99991345
-0.010536085 0.46924451 0.99990755
0.012260027 0.46839592 0.99990082
