# .PCD v0.7 - Point Cloud Data file format
VERSION 0.7
FIELDS x y z
SIZE 4 4 4
TYPE F F F
COUNT 1 1 1
WIDTH 1450
HEIGHT 1
VIEWPOINT 0 0 0 1 0 0 0
POINTS 1450
DATA ascii
0.33077505 -0.36200473 2.8580506
0.28331 -0.36238837 2.8602204
0.24268287 -0.35608169 2.8836882
0.22499877 -0.35643911 2.8837981
0.21741985 -0.3565923 2.8838451
0.19368285 -0.35702854 2.8841343
0.17042047 -0.35758585 2.8839951
0.14985408 -0.35790366 2.8844416
0.11156665 -0.35137773 2.9084549
0.069584496 -0.34408665 2.9352264
0.051593699 -0.34445035 2.935338
0.031032784 -0.34486598 2.9354656
0.010471869 -0.34528154 2.9355934
-0.010089044 -0.34569713 2.9357209
-0.030649956 -0.34611276 2.9358485
-0.072493486 -0.33974457 2.9596043
-0.09155003 -0.33263728 2.9841256
-0.11769807 -0.33316579 2.984288
-0.13149485 -0.3334856 2.9842403
-0.15107088 -0.33377087 2.9847214
-0.16999415 -0.33422282 2.9846127
-0.21470435 -0.32777786 3.0088251
-0.23101388 -0.32829693 3.0083094
-0.27263483 -0.32117063 3.0345182
-0.29561362 -0.31323183 3.0620306
-0.30635324 -0.31344885 3.0620973
-0.35102931 -0.31404343 3.0633793
-0.37690002 -0.30633619 3.0903456
-0.43650773 -0.30754104 3.0907156
-0.45010972 -0.30804944 3.0900397
-0.47146595 -0.30840328 3.0904257
-0.51712954 -0.30108643 3.1175466
-0.53309637 -0.29304418 3.1448905
-0.56724042 -0.29420996 3.1435533
-0.58885682 -0.29447395 3.1442509
-0.65141547 -0.29400885 3.1502724
-0.67157054 -0.28650939 3.1761503
-0.69106412 -0.28690344 3.1762712
-0.71123987 -0.28725132 3.1765916
-0.73118782 -0.28781056 3.1762073
-0.74954498 -0.28808564 3.1766338
-0.76966393 -0.28841829 3.1769998
-0.81386572 -0.28056008 3.2057784
-0.85195845 -0.27306303 3.2329407
-1.1477166 -0.62647069 2.1031938
-1.1636953 -0.61393189 2.145184
-1.127152 -0.59784788 2.1949372
-1.0869576 -0.57797176 2.2567785
-1.0692552 -0.56140924 2.3094475
-1.0677449 -0.5533998 2.3354254
-1.0675771 -0.54764795 2.3541472
-1.0684966 -0.54266405 2.3704462
-1.0658654 -0.5348286 2.3957767
-1.0653898 -0.52728206 2.4203217
-1.0646107 -0.52218741 2.4368589
-1.0428119 -0.51630992 2.4544315
-1.0271344 -0.51139903 2.4692969
-0.98929387 -0.51544839 2.453382
-0.96746165 -0.51491022 2.453562
-0.95538986 -0.51404947 2.4554958
-0.95118296 -0.5143345 2.4542644
-0.88885939 -0.51891065 2.43487
-0.8722465 -0.51816136 2.4361136
-0.85885167 -0.51756918 2.4370773
-0.81559807 -0.52189261 2.4198799
-0.79019266 -0.52728879 2.4004741
-0.76911569 -0.52975351 2.390928
-0.75567663 -0.53097397 2.3859849
-0.70808852 -0.53510827 2.369091
-0.66978401 -0.53933233 2.3525739
-0.65358478 -0.53904915 2.352329
-0.63116634 -0.54317188 2.3372862
-0.59071881 -0.54692447 2.32215
-0.56997967 -0.54689175 2.3207626
-0.54988253 -0.54965639 2.3103104
-0.52552867 -0.55131 2.30317
-0.51171482 -0.55102205 2.3031127
-0.47207689 -0.55377877 2.2912784
-0.44137302 -0.54842728 2.3064964
-0.4333078 -0.54826421 2.3064466
-0.41734034 -0.54863662 2.3040831
-0.39650804 -0.55246705 2.2901065
-0.39458588 -0.55277354 2.28897
-0.35418195 -0.55654454 2.273777
-0.3103216 -0.56023657 2.2585921
-0.28993261 -0.5603503 2.256753
-0.2700128 -0.56170893 2.2508929
-0.23136745 -0.56141818 2.2490556
-0.18890357 -0.56590378 2.2313869
-0.16943714 -0.56567854 2.2307181
-0.15785189 -0.56594867 2.2290037
-0.1171806 -0.56967217 2.2139461
-0.090106696 -0.57484806 2.1951377
-0.070231244 -0.57629001 2.1890094
-0.028210802 -0.57412583 2.1930311
-0.013542783 -0.57591677 2.1861413
0.030661987 -0.57893991 2.1731102
0.045874111 -0.57863218 2.1730165
0.070006333 -0.58437765 2.152565
0.087107822 -0.5856064 2.147331
0.15623319 -0.58412272 2.1471834
0.18449786 -0.5873729 2.1345613
0.20810017 -0.58858407 2.1289163
0.22565357 -0.58895266 2.126451
0.24402973 -0.59503132 2.105329
0.2695241 -0.5983817 2.0925801
0.28706867 -0.59818494 2.0919571
0.30596733 -0.59843427 2.0897834
0.33034676 -0.60197306 2.0765011
0.34768191 -0.60363805 2.0698295
0.36885986 -0.60397601 2.067203
0.391422 -0.60659522 2.0570469
0.40901008 -0.60849839 2.0495811
0.44316804 -0.61067373 2.0400352
0.46509415 -0.61366445 2.0287149
0.51012701 -0.61712325 2.0142052
0.52985168 -0.61859035 2.0080059
0.56593293 -0.6243422 1.9866728
0.60484487 -0.62696737 1.9753193
0.65804499 -0.627231 1.970628
0.68849015 -0.63340151 1.9483372
0.72975343 -0.63709551 1.933333
0.74921173 -0.63788033 1.9293751
0.77018535 -0.63778228 1.9281836
0.79033118 -0.63744521 1.92783
0.81047612 -0.63718343 1.9272314
0.82709652 -0.63629198 1.9289376
0.85091048 -0.64071095 1.9128292
0.87168634 -0.64185029 1.9076217
0.89022547 -0.64170665 1.9067539
0.90854007 -0.64569682 1.8924385
0.92296278 -0.65361589 1.8656069
0.90489531 -0.66391748 1.833356
0.90307337 -0.66666377 1.8245426
0.88268882 -0.67821407 1.7883917
0.86891067 -0.68739176 1.7594925
0.86706161 -0.68824184 1.7568569
0.85993171 -0.69006276 1.7514398
0.84850633 -0.69469261 1.7371835
0.83211029 -0.69406402 1.740412
0.80698371 -0.69010311 1.7551229
0.78687996 -0.68777543 1.7641525
0.74750954 -0.68922067 1.7622817
0.72384453 -0.69178367 1.7556388
0.7124207 -0.69195759 1.7558951
0.70263195 -0.69012779 1.7625601
0.6691491 -0.68820667 1.7712294
0.65184557 -0.68966985 1.7677103
0.62989944 -0.69159794 1.7630116
0.60797673 -0.6908865 1.766908
0.59182787 -0.69063568 1.7688885
0.56954688 -0.69281793 1.763386
0.54942936 -0.69322455 1.7635109
0.51445687 -0.69601607 1.7569383
0.48907682 -0.69444442 1.7638855
0.47050673 -0.69481981 1.7640008
0.42525259 -0.69742107 1.7587886
0.388459 -0.69470525 1.7702848
0.37037781 -0.69411176 1.7735204
0.35014638 -0.69452071 1.7736459
0.30959269 -0.69298702 1.7815627
0.26766437 -0.69618797 1.7741576
0.22564524 -0.69703728 1.7744186
0.21942019 -0.69716316 1.7744571
0.191008 -0.69485885 1.7840091
0.17141749 -0.69427216 1.7873312
0.15079933 -0.69385779 1.7901663
0.12886827 -0.69472289 1.7889286
0.12069714 -0.69515467 1.788111
0.10864691 -0.69593179 1.786448
0.0893813 -0.69516802 1.7903235
0.069544874 -0.69558853 1.790383
0.05006846 -0.69601351 1.7904018
0.039064199 -0.69623595 1.7904701
0.0089542288 -0.69322139 1.8024577
-0.0097992588 -0.69340932 1.8031968
-0.039505877 -0.69768864 1.791399
-0.050837263 -0.69797176 1.7912931
-0.069374584 -0.69829232 1.7915846
-0.083137855 -0.69860446 1.7915593
-0.13011135 -0.69596469 1.8035412
-0.14973618 -0.69630897 1.8038338
-0.19828163 -0.70089805 1.7923844
-0.21085793 -0.70115215 1.7924627
-0.22926375 -0.70154017 1.7925251
-0.2407584 -0.70189214 1.7922066
-0.29735178 -0.70303607 1.792558
-0.30678397 -0.70322669 1.7926165
-0.35126057 -0.70034903 1.8051933
-0.37595361 -0.70462489 1.7930458
-0.39010197 -0.70491087 1.7931335
-0.4298903 -0.70090902 1.809034
-0.45099741 -0.70126808 1.8093851
-0.46882582 -0.70182693 1.8088495
-0.48978931 -0.70210367 1.8094583
-0.51087302 -0.70270646 1.8090138
-0.52993387 -0.70395714 1.8063135
-0.55059683 -0.70424002 1.8068807
-0.56935853 -0.70406711 1.8087956
-0.5891813 -0.70467103 1.8082566
-0.61010146 -0.70499855 1.808697
-0.62971234 -0.70515907 1.8095871
-0.64953882 -0.7059778 1.8083487
-0.67778474 -0.7107259 1.7949189
-0.6898371 -0.71096945 1.7949939
-0.71455145 -0.71138781 1.7954118
-0.72932851 -0.71168643 1.7955039
-0.74223828 -0.71202874 1.795319
-0.77568656 -0.71264678 1.7957156
-0.78936756 -0.7128458 1.7960529
-0.80508798 -0.71316361 1.7961504
-0.8507089 -0.7142213 1.7959921
-0.86171311 -0.71444374 1.7960603
-0.89026314 -0.7108196 1.8099209
-0.90794611 -0.71037889 1.8126304
-0.92720056 -0.70875382 1.8193102
-0.95006073 -0.70661223 1.8279324
-0.98447162 -0.70050573 1.8503002
-0.98599231 -0.6994679 1.85379
-0.98810643 -0.69670379 1.8629452
-0.99853742 -0.68591392 1.8988395
-1.0043161 -0.68271554 1.9096727
-1.0280995 -0.67297077 1.943125
-1.0474216 -0.66902149 1.9573801
-1.081653 -0.6594314 1.991081
-1.0850046 -0.6588971 1.9930627
-1.1012784 -0.65312308 2.0130413
-1.1079118 -0.64992368 2.0239396
-1.1181195 -0.64679295 2.0348718
-1.1222016 -0.64437294 2.0430479
-1.1219082 -0.64269823 2.0484812
-1.1433849 -0.63072962 2.0890105
-0.80971825 -0.46562088 2.6027341
-0.84569514 -0.4778606 2.5654609
-0.88338846 -0.46737158 2.6023393
-0.92470151 -0.46250018 2.6211817
-0.97055238 -0.46329519 2.6218956
-0.98882467 -0.46332178 2.6231253
-1.0014619 -0.45747548 2.6430771
-0.98837686 -0.44448012 2.6844606
-0.98582041 -0.43836012 2.7042093
-0.98290896 -0.43199411 2.7247338
-0.96865559 -0.42425838 2.7489023
-0.96512073 -0.41724947 2.7714758
-0.96321887 -0.4113141 2.7906704
-0.96259451 -0.41012797 2.7944887
-0.9638781 -0.40473768 2.8121374
-0.96357924 -0.40345746 2.8162856
-0.94915783 -0.39634484 2.8384125
-0.93976808 -0.3892701 2.8607786
-0.92910606 -0.38069296 2.8879464
-0.91709334 -0.38039559 2.8880494
-0.91445506 -0.38764799 2.8642383
-0.91007835 -0.39551595 2.8382969
-0.89352852 -0.40220666 2.8153129
-0.8773849 -0.40831533 2.7942538
-0.86731011 -0.41520271 2.7710958
-0.85564286 -0.42215484 2.747612
-0.85191298 -0.42833167 2.7272253
-0.84744847 -0.43521357 2.7044892
-0.83681315 -0.44087684 2.6852777
-0.83012861 -0.4472484 2.6640439
-0.81627578 -0.45293504 2.6445243
-0.81646276 -0.45373601 2.6419291
-0.81566274 -0.45999959 2.6214709
0.72388017 0.60239059 1.5236696
0.74753273 0.58968222 1.5202428
0.747751 0.54808974 1.5345763
0.75100213 0.53348672 1.5385581
0.76162404 0.51002502 1.5431685
0.76354736 0.49126083 1.549031
0.7647056 0.46884793 1.5564106
0.76545972 0.45281494 1.5617141
0.76783627 0.43522662 1.5670193
0.7691049 0.41006839 1.5753131
0.77204591 0.39194316 1.5806174
0.77507013 0.37345815 1.5860189
0.76960218 0.33364594 1.6016178
0.7753315 0.31623685 1.6057513
0.76863271 0.29211369 1.6163237
0.77169037 0.27366307 1.6217021
0.7781871 0.25522107 1.6259394
0.77115244 0.21356435 1.6426957
0.77292734 0.19665621 1.6479645
0.80968308 0.15281084 1.6509852
0.80956817 0.14453249 1.6538905
0.81055588 0.13354041 1.6573708
0.81251609 0.11491522 1.663173
0.81780452 0.099796444 1.666659
0.82279915 0.088112295 1.6690528
0.82460964 0.069394469 1.6749365
0.8257615 0.056181036 1.6791319
0.82565898 0.046000019 1.6826921
0.82697713 0.033240691 1.6866751
0.82917452 0.012279272 1.6932079
0.83033019 -0.0072393417 1.6995857
0.83496398 -0.021399379 1.7029564
0.84160089 -0.034299612 1.7052279
0.84299445 -0.047788396 1.7094386
0.84494561 -0.066672683 1.7153335
0.84696138 -0.087586537 1.7219099
0.84813195 -0.099266455 1.7255678
0.84775007 -0.11153577 1.7299438
0.84925157 -0.12779416 1.735078
0.85074413 -0.14680912 1.7411699
0.85299975 -0.16746195 1.7475766
0.86386931 -0.18884657 1.7513857
0.86501229 -0.19990973 1.7548392
0.86734456 -0.22967233 1.7643757
0.86751711 -0.2382624 1.7672938
0.86798781 -0.25163561 1.7717699
0.86871457 -0.26685297 1.7767999
0.87987149 -0.29152614 1.7816529
0.87518495 -0.30172151 1.7867353
0.83475751 -0.28981686 1.7959926
0.80383873 -0.2893033 1.8060482
0.78473806 -0.29167151 1.8131902
0.76856089 -0.29144955 1.8184676
0.74804968 -0.28421503 1.8227507
0.70453167 -0.28619951 1.8378415
0.68697363 -0.27374589 1.8393394
0.66873682 -0.26889604 1.8436956
0.651591 -0.27052641 1.8499352
0.63258922 -0.26602918 1.8546667
0.61341703 -0.26178867 1.8595436
0.59946382 -0.26294845 1.8645635
0.58985674 -0.26354587 1.8679501
0.56177521 -0.27026224 1.8795706
0.54180866 -0.27769929 1.888755
0.52199107 -0.27026361 1.8927387
0.50653207 -0.26871502 1.897319
0.4888328 -0.26670629 1.9024813
0.46552077 -0.27014887 1.9113894
0.45064229 -0.26711833 1.9152641
0.39830077 -0.26929533 1.933342
0.38570333 -0.26648188 1.936537
0.37261498 -0.26619226 1.9407687
0.32057953 -0.26507533 1.9576044
0.30040982 -0.26254404 1.9634033
0.28537515 -0.25842065 1.9669514
0.26668742 -0.25382948 1.9715463
0.24887389 -0.24805902 1.9754436
0.20825888 -0.25598389 1.991631
0.16915208 -0.24437435 2.0005534
0.14879909 -0.24231373 2.0065761
0.13055901 -0.24166842 2.0123897
0.10768767 -0.24444143 2.02092
0.087470487 -0.2482845 2.0289426
0.072264925 -0.24083738 2.0313959
0.026640233 -0.22755657 2.0418966
0.010398356 -0.22761892 2.0472939
-0.014858258 -0.23147218 2.056988
-0.032295387 -0.23114006 2.0626442
-0.049811583 -0.22557871 2.0665154
-0.065146528 -0.22255881 2.070545
-0.085103616 -0.21889968 2.0758829
-0.11609697 -0.22422971 2.0879872
-0.13540706 -0.22586875 2.0949459
-0.15158376 -0.22476186 2.0999167
-0.17235307 -0.22576489 2.1071384
-0.1887012 -0.22400908 2.1119411
-0.20019133 -0.21826048 2.1137528
-0.2338711 -0.21157269 2.1225839
-0.26036522 -0.21917252 2.133985
-0.29189849 -0.209163 2.140955
-0.32094151 -0.22035532 2.154444
-0.33452889 -0.21828516 2.1582241
-0.34770322 -0.21025549 2.1598034
-0.39194 -0.20903446 2.1740217
-0.40981734 -0.2127593 2.1812289
-0.43494365 -0.19477771 2.1833172
-0.45324257 -0.19175933 2.1883283
-0.4893803 -0.20250352 2.2040102
-0.52061844 -0.19300298 2.2110589
-0.53156912 -0.1921934 2.2144029
-0.55681151 -0.19612201 2.2241182
-0.57474518 -0.19294117 2.2289522
-0.59503168 -0.19111638 2.2350345
-0.61425257 -0.19123583 2.2414374
-0.65025657 -0.23482706 2.2684522
-0.65126002 -0.24532674 2.2724209
-0.65171003 -0.25738645 2.2767467
-0.65295345 -0.27157438 2.2820723
-0.65425694 -0.28867894 2.2884281
-0.65178466 -0.31493795 2.2967048
-0.64986074 -0.32357055 2.299058
-0.65066415 -0.33013439 2.3015971
-0.65119565 -0.34820807 2.308033
-0.64107341 -0.37300748 2.3132722
-0.64822084 -0.39621258 2.3236752
-0.63561153 -0.43924469 2.3344061
-0.57069892 -0.4787603 2.3266079
-0.5548631 -0.48038125 2.321928
-0.52576053 -0.47912115 2.3118594
-0.5128088 -0.48044688 2.3080318
-0.50170714 -0.48158312 2.3047509
-0.47400391 -0.49443913 2.3000345
-0.45525211 -0.49687958 2.2946734
-0.42503497 -0.49919331 2.2854736
-0.39303118 -0.5073899 2.27772
-0.37209535 -0.50461209 2.2698286
-0.34403712 -0.5034768 2.2601488
-0.332515 -0.50307602 2.2561965
-0.29322001 -0.50109231 2.2425036
-0.25526336 -0.51374793 2.2343242
-0.21661875 -0.53188944 2.2278171
-0.19125742 -0.53193945 2.2194405
-0.17624585 -0.52770859 2.2130065
-0.16772646 -0.52315956 2.2086112
-0.13340773 -0.53389287 2.2009702
-0.11724937 -0.53453702 2.1958451
-0.090865731 -0.52222502 2.1828485
-0.082644448 -0.52245814 2.1802082
-0.069241472 -0.52740645 2.1774859
-0.050522365 -0.53102112 2.1725423
-0.040054306 -0.53277212 2.1696839
-0.011402505 -0.53983003 2.1626456
0.0089982003 -0.54288876 2.1569529
0.052316193 -0.54326701 2.1427464
0.066337779 -0.54253715 2.1378529
0.081949726 -0.5404222 2.1319532
0.086206764 -0.5390287 2.1300616
0.1093525 -0.55139697 2.1266847
0.12786074 -0.5537678 2.1213801
0.14427707 -0.55449539 2.1161985
0.18789813 -0.55986798 2.103622
0.20337573 -0.56182855 2.0991781
0.24643633 -0.55533236 2.0826762
0.26472071 -0.55686694 2.0771558
0.27574205 -0.55443406 2.0726655
0.28659558 -0.55688602 2.0699224
0.30747527 -0.5604285 2.0642388
0.32396004 -0.56151521 2.059159
0.33613089 -0.56730342 2.0571356
0.36143443 -0.57070422 2.0499384
0.390865 -0.56326371 2.0376205
0.4381986 -0.56891799 2.0239127
0.44506246 -0.5686655 2.0215535
0.4642258 -0.56597042 2.0142775
0.49392655 -0.55369842 2.0001967
0.50654501 -0.55362594 1.995995
0.52215213 -0.5576275 1.9922155
0.53761935 -0.56120986 1.9883369
0.57674283 -0.575032 1.9801754
0.58693331 -0.5743041 1.9765505
0.61413962 -0.56035513 1.9627144
0.61728585 -0.56067723 1.9617847
0.64526409 -0.57536328 1.9576111
0.66910458 -0.57820445 1.9507046
0.68828684 -0.57778233 1.9442095
0.70512736 -0.57921374 1.9391314
0.71604055 -0.57895219 1.9354287
0.72067857 -0.57942688 1.9340581
0.77292514 -0.58385921 1.9183009
0.78724211 -0.59260368 1.916591
0.80377656 -0.59688115 1.9126
0.82664114 -0.60215706 1.9068596
0.84529775 -0.60406661 1.9013461
0.86625189 -0.60416979 1.8944466
0.90773678 -0.60270733 1.8802094
0.9241184 -0.60214454 1.8745927
0.92536342 -0.60676265 1.87578
0.92865223 -0.6242764 1.8807576
0.92132699 -0.62369758 1.8829815
0.89103377 -0.61349183 1.8894731
0.88376552 -0.61300421 1.8917098
0.86679512 -0.61340523 1.8974655
0.84804833 -0.61511314 1.9042618
0.82909089 -0.61099011 1.9091083
0.81010199 -0.61230028 1.9158469
0.78918535 -0.61278009 1.9229361
0.77068269 -0.610443 1.9282506
0.75196731 -0.60912889 1.9339898
0.73233861 -0.60871714 1.9403437
0.71242589 -0.60752916 1.946523
0.69433242 -0.60530698 1.9517418
0.6708464 -0.60832608 1.9605608
0.65280765 -0.60724384 1.9661564
0.60461366 -0.58867902 1.9756775
0.5912419 -0.58731031 1.9796292
0.56586099 -0.5875327 1.9881067
0.55182981 -0.58884364 1.9932047
0.53725004 -0.58995783 1.9984162
0.52755463 -0.58999932 2.0016396
0.50911796 -0.58988357 2.0077016
0.49095169 -0.58826333 2.0131531
0.47395322 -0.58786714 2.0186419
0.44318098 -0.58974469 2.0294771
0.42540389 -0.59126538 2.0358875
0.38712126 -0.5741297 2.0426233
0.36962309 -0.57354391 2.0482118
0.35515609 -0.57246488 2.0526264
0.34465507 -0.57281822 2.0562243
0.32718733 -0.57120204 2.061446
0.30744383 -0.57126158 2.0680013
0.28054181 -0.5789361 2.0795634
0.24517429 -0.57503247 2.0899172
0.22531602 -0.57336956 2.0959136
0.20524789 -0.5740664 2.1027973
0.19006054 -0.57355785 2.1076477
0.14489615 -0.5562945 2.1166167
0.12682784 -0.55941397 2.1236775
0.118552 -0.56022328 2.1266968
0.098809645 -0.56513101 2.1349311
0.067094952 -0.55283648 2.1411695
0.052600835 -0.55426586 2.1464617
0.025658481 -0.55478543 2.1555591
-0.010964267 -0.59859782 2.1828551
-0.049598493 -0.55321157 2.1799223
-0.069552056 -0.55048531 2.1855822
-0.08804667 -0.54662997 2.1903682
-0.1046799 -0.54856688 2.1965442
-0.11903517 -0.55144674 2.2022929
-0.13181616 -0.55076849 2.2062883
-0.14891309 -0.5485667 2.2111843
-0.16795292 -0.54657471 2.2167962
-0.20875107 -0.5346424 2.2261665
-0.23017317 -0.53157842 2.2321956
-0.23308891 -0.53100622 2.2329624
-0.2529915 -0.52771187 2.2384088
-0.27152872 -0.53006035 2.2453575
-0.29188678 -0.53124946 2.2525074
-0.30990228 -0.52940547 2.2578316
-0.32652813 -0.52900892 2.2631969
-0.33581221 -0.53098363 2.2669537
-0.33954129 -0.53237581 2.2686701
-0.34955785 -0.52993208 2.2711389
-0.36645642 -0.52962446 2.2766254
-0.38365209 -0.52644241 2.2812147
-0.41115689 -0.53080982 2.2918308
-0.42021978 -0.5283165 2.2939668
-0.44550368 -0.52543014 2.3013356
-0.46877936 -0.52537519 2.3090203
-0.48623952 -0.52472448 2.3145738
-0.52572322 -0.50451005 2.3206406
-0.54490578 -0.50412077 2.3268547
-0.5652864 -0.50409412 2.333591
-0.58890396 -0.49881124 2.3395782
-0.611853 -0.49792325 2.3468661
-0.64751685 -0.50646722 2.3616292
-0.66491151 -0.5021736 2.3658996
-0.70705569 -0.50275081 2.380048
-0.75133234 -0.48185897 2.3874667
-0.76738697 -0.48565036 2.3940935
-0.78966951 -0.48851246 2.4024599
-0.80294198 -0.48719573 2.4063966
-0.82966107 -0.48878777 2.4157915
-0.84658343 -0.4863981 2.4205647
-0.8720547 -0.49468327 2.4318647
-0.91458184 -0.49223405 2.445092
-0.9652102 -0.48823041 2.4604621
-0.98164892 -0.48477757 2.4647069
-1.0078597 -0.48814625 2.4745488
-1.0252451 -0.48652774 2.4797425
-1.0415128 -0.48449475 2.4844227
-1.0434595 -0.46535248 2.4784369
-1.0449167 -0.44975489 2.4735169
-1.0440738 -0.42618656 2.465075
-1.0418663 -0.40716004 2.4577544
-1.0432897 -0.3920207 2.4529819
-1.0430346 -0.36486495 2.4434919
-1.055069 -0.32015657 2.4319901
-1.0564507 -0.30678248 2.4278152
-1.0576351 -0.29531902 2.4242368
-1.0576363 -0.2431009 2.4061511
-1.0611089 -0.22496001 2.4010172
-1.0606114 -0.20940019 2.3954632
-1.0450923 -0.18207236 2.3808618
-1.0437071 -0.16654019 2.3750236
-1.0449501 -0.15451224 2.371269
-1.0567949 -0.12691675 2.3656316
-1.0604534 -0.076108992 2.3492448
-1.0625675 -0.029696167 2.3338692
-1.0624061 -0.019364268 2.3302374
-1.060352 -0.018140987 2.3291337
-1.0477945 -0.005713746 2.3206735
-1.0410608 0.012988001 2.3119671
-1.0763488 0.088188469 2.2976005
-1.0602198 0.10668206 2.285857
-1.0603743 0.17408457 2.2625628
-1.0311763 0.20805943 2.2411315
-1.0293984 0.22344428 2.2352145
-1.0131537 0.23203281 2.2268631
-1.0156333 0.22749671 2.229255
-1.0207088 0.19490999 2.2422214
-1.0215069 0.16182677 2.2539442
-1.0198934 0.1505512 2.2573154
-1.0199882 0.10210298 2.2741272
-1.0165672 0.088971347 2.2775431
-1.0123272 0.027953431 2.2972736
-1.0182136 0.01865454 2.3024426
-1.0204836 -0.0167564 2.3154588
-1.018412 -0.034824505 2.3210311
-1.0177618 -0.047065645 2.3250556
-1.0185039 -0.074098647 2.3346643
-1.0196433 -0.08488296 2.3387766
-1.0183792 -0.11507653 2.3488159
-1.0179451 -0.12826659 2.3532407
-1.0154014 -0.15391554 2.3612823
-1.005807 -0.17062937 2.3638959
-1.0021981 -0.22253107 2.3806777
-1.0012349 -0.23389201 2.384294
-1.0009166 -0.27381909 2.3980176
-1.0013586 -0.28595626 2.4023676
-1.0022607 -0.33794498 2.4206729
-1.0001556 -0.35212082 2.424886
-1.0011038 -0.36154222 2.428463
-1.0005128 -0.37478077 2.4328525
-1.0004569 -0.39065164 2.4383311
-0.97232729 -0.45681751 2.4519377
-0.92732847 -0.46142334 2.4386394
-0.91558957 -0.46262491 2.4351702
-0.91068053 -0.46386653 2.4339755
-0.89167207 -0.46521693 2.4281518
-0.87737614 -0.46177602 2.4222283
-0.84691632 -0.47567922 2.4169624
-0.82647717 -0.47651112 2.4104855
-0.81293267 -0.4759587 2.4058113
-0.79459816 -0.47725368 2.4001915
-0.78639901 -0.47737616 2.3975203
-0.77057183 -0.47774476 2.3924096
-0.73302984 -0.4410131 2.3672619
-0.72209978 -0.40493608 2.3511486
-0.72344375 -0.39192748 2.3470879
-0.72757554 -0.36989963 2.340826
-0.7386322 -0.34072763 2.3343816
-0.722893 -0.30703616 2.317503
-0.72153383 -0.28736639 2.3102405
-0.72401178 -0.26921272 2.3047731
-0.72608823 -0.24971534 2.2987072
-0.73019981 -0.2318749 2.293889
-0.73326033 -0.223047 2.2918444
-0.74190915 -0.17687623 2.2787154
-0.74527252 -0.1443228 2.2685535
-0.73745602 -0.1343409 2.2625091
-0.7234745 -0.10697295 2.2484026
-0.72396255 -0.093670204 2.2439566
-0.72186011 -0.081580177 2.2390733
-0.72305584 -0.065191329 2.2337928
-0.72597539 -0.047359824 2.2285829
-0.73016429 -0.035015494 2.2256939
-0.73693079 -0.013026461 2.2203174
-0.74730223 0.013590798 2.2145312
-0.7540822 0.024739385 2.2129138
-0.74867976 0.040471956 2.2056766
-0.7556479 0.074083172 2.1963415
-0.75600946 0.077583179 2.1952488
-0.74579656 0.10467816 2.1824841
-0.75151652 0.13099813 2.1752613
-0.75643283 0.14517778 2.1719773
-0.75972426 0.19315307 2.15645
-0.76078844 0.20345357 2.1532347
-0.74483156 0.25929818 2.1286113
-0.74517959 0.26266679 2.1275597
-0.76295716 0.30448261 2.1189606
-0.76700485 0.35692805 2.1021354
-0.8180998 0.41522485 2.0988553
-0.82856447 0.42287987 2.0996675
-0.81890625 0.45277447 2.0861168
-0.82703227 0.51344264 2.0677936
-0.83023047 0.52440619 2.0650547
-0.82069743 0.55281436 2.0520601
-0.82078207 0.60163224 2.0351799
-0.82323045 0.60982013 2.0331542
-0.82174277 0.64658689 2.0199275
-0.84625971 0.69313711 2.0119193
-0.84659123 0.69634598 2.0109174
-0.84330833 0.71179128 2.0044813
-0.83118552 0.75447232 1.9856862
-0.83542049 0.7727384 1.9807613
-0.83139741 0.77086884 1.9800773
-0.7628637 0.7670809 1.9587063
-0.75391084 0.77025402 1.954644
-0.74210644 0.77203679 1.9501195
-0.72328728 0.7708776 1.9442923
-0.70759428 0.7687493 1.9398354
-0.68791997 0.76607746 1.9342492
-0.66895753 0.76542306 1.9281996
-0.64756227 0.76442188 1.921465
-0.63074076 0.76270002 1.9164939
-0.61697757 0.76129138 1.9124265
-0.58498406 0.7514472 1.905247
-0.56898481 0.74947995 1.900633
-0.55104196 0.7477501 1.8952935
-0.53041267 0.74603271 1.8890605
-0.5145359 0.74390692 1.8845419
-0.49702021 0.74256146 1.8792106
-0.48317835 0.74243373 1.8746735
-0.47782448 0.74217886 1.8729898
-0.42480609 0.73513579 1.8578813
-0.40839431 0.73014069 1.8541795
-0.39198926 0.72847289 1.8493274
-0.3723754 0.726843 1.8434002
-0.35952583 0.72685331 1.8391438
-0.3490468 0.72635466 1.8358481
-0.33171439 0.72400677 1.8309246
-0.3128328 0.72226554 1.8252784
-0.29221937 0.72095329 1.8189104
-0.28202891 0.7199102 1.8158988
-0.25110123 0.70949131 1.8092711
-0.2351135 0.70939761 1.8040119
-0.22355545 0.70865422 1.800444
-0.21006772 0.70844406 1.7960527
-0.18897793 0.70679057 1.7896452
-0.17252854 0.70456821 1.7849705
-0.15653393 0.70327622 1.7801242
-0.14619483 0.70391273 1.7764816
-0.13164473 0.70289183 1.7720195
-0.11009131 0.70115411 1.7654877
-0.087370977 0.69208562 1.7611086
-0.069627389 0.6897276 1.7560527
-0.052611537 0.6883682 1.7508917
-0.039497234 0.68853456 1.7464936
-0.028201357 0.68755066 1.7430956
-0.010989634 0.68570268 1.738039
0.008302927 0.68385279 1.7322943
0.027753882 0.68222862 1.7264191
0.048633296 0.68007523 1.7202543
0.061546851 0.67889518 1.7163889
0.076057106 0.67297244 1.7136377
0.10940164 0.67153132 1.7031006
0.13662735 0.66741711 1.6955144
0.14923105 0.66483462 1.6922374
0.16910541 0.66396081 1.6859621
0.18716407 0.662884 1.6803581
0.19820927 0.66267455 1.6767749
0.21288759 0.66117215 1.6724371
0.2208939 0.66035265 1.670071
0.25717244 0.65334803 1.6604898
0.27187487 0.65026611 1.6566911
0.28908437 0.64757222 1.6519282
0.30803514 0.64628071 1.6461031
0.317615 0.64699918 1.6426836
0.32990149 0.64556098 1.6391152
0.34972745 0.6446963 1.6328528
0.36189085 0.64386344 1.6291153
0.39185119 0.63295406 1.6229777
0.41133192 0.63117033 1.6171479
0.44151589 0.63315243 1.6064712
0.44893855 0.63096684 1.6047714
0.47415394 0.62754321 1.5976115
0.49065885 0.62611383 1.5926439
0.50288641 0.62528533 1.5888838
0.51275498 0.62543029 1.5855672
0.53173006 0.62337685 1.5799981
0.54827392 0.62158024 1.5751448
0.56517261 0.62013191 1.5700533
0.58494282 0.61841846 1.5641034
0.60531127 0.61667168 1.5579668
0.61711138 0.61546391 1.5544796
0.63194054 0.60846716 1.5519948
0.64804357 0.60632831 1.547406
0.6666584 0.60367113 1.5421652
0.67701119 0.60487133 1.5383229
0.68898165 0.60412723 1.5346187
0.70887643 0.60277915 1.5285009
-0.94558567 0.40476161 2.6572483
-0.93781972 0.36445826 2.6964161
-0.93776476 0.35243022 2.6992142
-0.94568503 0.2983194 2.6797073
-0.944076 0.2284009 2.7010393
-0.94452482 0.20663793 2.7039475
-0.94123608 0.17443122 2.7237842
-0.94248194 0.14661314 2.7248602
-0.94340527 0.12932405 2.7249434
-0.94068772 0.084463805 2.7452521
-0.94136024 0.067364439 2.7462802
-0.94235003 0.050162375 2.7460835
-0.93883955 0.0053858906 2.7694898
-0.93475342 -0.01449535 2.7898142
-0.93058753 -0.037180938 2.8110538
-0.93140656 -0.051195364 2.8108439
-0.93228996 -0.069832161 2.8113732
-0.93329877 -0.088855609 2.8114929
-0.93408448 -0.10867857 2.8126607
-0.9307636 -0.15637338 2.8359487
-0.93119693 -0.16717663 2.836565
-0.93248272 -0.19577353 2.8376513
-0.93358558 -0.20901726 2.8361607
-0.92997324 -0.25297552 2.8597918
-0.92518234 -0.2705653 2.8823934
-0.9268685 -0.31541461 2.8853953
-0.92735481 -0.32788715 2.8861618
-0.92838925 -0.34805006 2.8864253
-0.92935151 -0.34882587 2.8828106
-0.93564236 -0.35099003 2.8585556
-0.94220293 -0.36754638 2.8363299
-0.9429602 -0.36883581 2.833631
-0.94974399 -0.37548107 2.8084006
-0.96125394 -0.38834673 2.7659342
-0.97403729 -0.41110969 2.7205887
-0.97944432 -0.41080219 2.6992757
-0.99065566 -0.43112051 2.6595826
-0.99634266 -0.43292457 2.6376228
-1.001953 -0.44301212 2.6177425
-1.0063496 -0.43921828 2.5996521
-1.0132482 -0.43173087 2.5709362
-1.0123495 -0.40711957 2.5691845
-1.0205199 -0.35934973 2.5268247
-1.0200673 -0.35053068 2.5267096
-1.017805 -0.30643514 2.5261338
-1.0212827 -0.2842485 2.5077052
-1.0208876 -0.27134404 2.5064878
-1.0227766 -0.22773468 2.4897034
-1.0217736 -0.20818281 2.4894478
-1.0205475 -0.18428612 2.4891357
-1.023181 -0.14628685 2.4706302
-1.0262563 -0.1289102 2.4548156
-1.0431205 -0.10766853 2.3839881
-1.0541021 -0.14946815 2.3498089
-1.0552779 -0.17075826 2.3497589
-1.05357 -0.20350707 2.3634999
-1.0544908 -0.21302691 2.3619254
-1.0553734 -0.23865493 2.3639588
-1.0527316 -0.27151304 2.3813932
-1.0507764 -0.28886062 2.3928003
-1.0485349 -0.34898818 2.4145155
-1.049754 -0.37063617 2.414372
-1.0473627 -0.41086644 2.432405
-1.0449779 -0.44644576 2.4494135
-1.0448345 -0.46385092 2.4537134
-1.0473886 -0.48986453 2.4492617
-1.0527941 -0.49524277 2.4291751
-1.0554473 -0.49666017 2.4190533
-1.0638372 -0.51276582 2.3895433
-1.0788109 -0.52944756 2.334285
-1.0796139 -0.53187239 2.33165
-1.0858918 -0.53733462 2.3081534
-1.0917469 -0.54749161 2.2873263
-1.0957766 -0.55220705 2.2725043
-1.1009597 -0.55607218 2.2529671
-1.1117916 -0.56426847 2.2121627
-1.1153077 -0.56857967 2.1992714
-1.1226366 -0.58188522 2.1733291
-1.1318753 -0.58935893 2.1386299
-1.1344115 -0.5963819 2.1301718
-1.1373695 -0.59710908 2.1187043
-1.1398237 -0.59252989 2.1080775
-1.136247 -0.54752672 2.1124711
-1.1362005 -0.53102309 2.1091111
-1.1397234 -0.50222802 2.0890865
-1.1394422 -0.49674678 2.089015
-1.138036 -0.46934009 2.0886571
-1.1370987 -0.451069 2.0884185
-1.1360674 -0.43097073 2.0881562
-1.1370797 -0.40258062 2.0780842
-1.1368001 -0.39713079 2.0780129
-1.1329739 -0.37067604 2.087369
-1.1319427 -0.35057777 2.0871065
-1.1309116 -0.3304795 2.086844
-1.1320466 -0.30448306 2.0768034
-1.1311277 -0.28981018 2.0772643
-1.1274682 -0.24332286 2.081665
-1.126771 -0.2340533 2.0824149
-1.1147754 -0.18840721 2.1197524
-1.1114969 -0.177053 2.1301982
-1.1040267 -0.14649746 2.1529932
-1.0995104 -0.15087755 2.1716797
-1.0879729 -0.13352661 2.2132919
-1.087428 -0.1330872 2.2153387
-1.0790373 -0.13026264 2.2477036
-1.073518 -0.12723938 2.2687423
-1.057126 -0.065073594 2.3198094
-1.0656896 -0.0092717931 2.2741807
-1.0646056 0.0055590421 2.2752562
-1.0667112 0.087987512 2.2492876
-1.0722653 0.093719974 2.2262325
-1.0785344 0.095126286 2.2012961
-1.0780401 0.10780501 2.2005167
-1.0763576 0.15582643 2.1968193
-1.0768365 0.16702314 2.192534
-1.0764227 0.1723543 2.1930156
-1.0748473 0.18983246 2.1954541
-1.0730608 0.2063777 2.1989224
-1.0698271 0.20613186 2.2116818
-1.0662266 0.20678802 2.2256892
-1.0658312 0.20524137 2.2275748
-1.066299 0.18954737 2.2291057
-1.0638765 0.14902355 2.247324
-1.0635003 0.11245193 2.2566533
-1.0614399 0.091762275 2.2691908
-1.0609325 0.006201908 2.2895515
-1.0581377 -0.014455631 2.3049684
-0.9856199 0.4603129 2.488009
-0.98301709 0.41994828 2.5069017
-0.97668195 0.36797476 2.5429525
-0.983742 0.32339591 2.5247798
-0.98985744 0.30535543 2.504622
-0.99425596 0.29715788 2.4890978
-0.9960261 0.29364794 2.4828954
-1.0009871 0.28551602 2.465147
-1.0057573 0.28081071 2.4474125
-1.0060298 0.28059089 2.4463887
-1.0109276 0.27020669 2.4293723
-1.0152689 0.2663613 2.4131386
-1.0191191 0.26695961 2.3978806
-1.0270206 0.25988394 2.3683512
-1.0359322 0.24809171 2.3358645
-1.0407518 0.2453105 2.3175225
-1.0374515 0.21362872 2.3372922
-1.0345006 0.19148083 2.3536422
-1.0326215 0.15379088 2.369117
-1.0301226 0.12807018 2.3844576
-1.0300442 0.09677878 2.3914831
-1.0305204 0.044744328 2.4007816
-1.0275698 0.011552103 2.4195018
-1.0286529 -0.0095602199 2.4197774
-1.0421052 -0.093103781 2.384851
-1.0972382 0.57022947 2.0258107
-1.1009564 0.56644118 2.012013
-1.1008722 0.54963839 2.0159509
-1.1007202 0.53793448 2.0190606
-1.1030424 0.50734037 2.0165031
-1.1062016 0.47754395 2.0104854
-1.0957115 0.49371642 2.0482347
-1.0906709 0.49827969 2.0670619
-1.0871881 0.5275588 2.0744622
-1.093998 0.54283476 2.0444236
-0.96034354 0.40346152 2.5995364
-0.96809304 0.42619127 2.5642054
-0.97390503 0.42436373 2.5417597
-0.97786421 0.42747277 2.5255346
-0.98539698 0.46465778 2.4879522
-0.95085114 0.40436065 2.6366436
-0.95571023 0.40386611 2.617656
-0.94609332 0.40702623 2.6547673
-1.1066896 0.27220827 2.0526469
-1.1004957 0.27569348 2.0762374
-1.0951679 0.2875545 2.0946269
-1.0848987 0.2934196 2.1337206
-1.0807186 0.29566586 2.1496639
-1.0786886 0.31036061 2.1544862
-1.0789063 0.32805413 2.1498327
-1.0788376 0.34276927 2.1469436
-1.080639 0.3723858 2.1335073
-1.0801253 0.38350528 2.1331391
-1.0865599 0.37231308 2.1102569
-1.0914804 0.36724454 2.09201
-1.0950984 0.36393076 2.0785043
-1.102807 0.34474498 2.0523319
-1.1115423 0.34167284 2.0186663
-1.1120592 0.33535504 2.0179911
-1.1120245 0.33227324 2.0187893
-1.1134412 0.30466199 2.0191495
-1.1140742 0.29232502 2.0193107
-0.90289128 0.75088358 1.895931
-0.91414511 0.7537145 1.898507
-0.91121161 0.72119349 1.9141545
-0.9062314 0.70884138 1.9187136
-0.90639174 0.67266923 1.9373435
-0.90108263 0.65788466 1.9430336
-0.89677405 0.62526953 1.9582371
-0.90237355 0.59994763 1.9732435
-0.90102744 0.582228 1.9818596
-0.90239763 0.57082796 1.9882035
-0.9452247 0.53680611 2.0210063
-0.96885735 0.52951968 2.0332091
-1.0043045 0.53913224 2.0409656
-1.0293517 0.53555012 2.0517731
-1.0470892 0.53814554 2.0567913
-1.0646992 0.53984863 2.0622222
-1.0661286 0.51647449 2.0747354
-1.0633674 0.49844083 2.0830061
-1.0623416 0.4911035 2.086406
-1.0619153 0.4895297 2.0870616
-1.048057 0.40358928 2.1262255
-1.0489806 0.38895339 2.1340709
-1.0467622 0.37533695 2.1402681
-1.0466212 0.34903774 2.1537209
-1.0450965 0.33682737 2.1594443
-1.0453978 0.31952092 2.1684382
-0.98459518 0.29912621 2.1571393
-0.97041845 0.29600212 2.1536672
-0.95443046 0.29569533 2.1481004
-0.9430936 0.29674247 2.1435034
-0.91175377 0.2980909 2.1315899
-0.90425825 0.29854715 2.1286716
-0.88811898 0.29637069 2.1240106
-0.8653481 0.29672572 2.115675
-0.82556653 0.28157642 2.1092095
-0.81025875 0.27789029 2.1056213
-0.81013215 0.27834368 2.1053431
-0.81407905 0.3001405 2.0955648
-0.81260175 0.31164354 2.0891297
-0.81194234 0.32000318 2.0846012
-0.80943167 0.33102107 2.0780451
-0.81221771 0.34729153 2.0706887
-0.81769669 0.36353952 2.0643079
-0.81866825 0.3826305 2.0548537
-0.81388021 0.44881812 2.0191553
-0.80701733 0.45616725 2.0129247
-0.81375015 0.46751311 2.00951
-0.85330838 0.50952327 2.0021038
-0.8708539 0.52502006 2.0004292
-0.89762312 0.56852198 1.9876781
-0.89636302 0.58346248 1.9795556
-0.89538956 0.59194177 1.9748534
-0.88752103 0.6163134 1.9595225
-0.89411134 0.63163966 1.954013
-0.89475417 0.65419865 1.9426602
-0.8919301 0.68555659 1.9255484
-0.89251 0.69451755 1.921155
-0.89679539 0.70203328 1.9188305
-0.90165961 0.73667747 1.9027841
-0.99384785 -0.43113238 2.5354018
-0.97517669 -0.44574815 2.536221
-0.93338001 -0.45182902 2.5243778
-0.91335154 -0.44789881 2.5151887
-0.88725656 -0.45169529 2.5077946
-0.8792274 -0.45286351 2.5055196
-0.85399371 -0.45137438 2.4957201
-0.83121026 -0.45989853 2.4919391
-0.81527269 -0.46221724 2.4874232
-0.7893889 -0.45953217 2.4767768
-0.77949959 -0.460971 2.4739747
-0.76586908 -0.44819018 2.462532
-0.7918033 -0.44925711 2.4723656
-0.81340194 -0.44611469 2.4784856
-0.82968158 -0.4403232 2.4813409
-0.85072058 -0.44457528 2.4910572
-0.86654347 -0.44227344 2.4955406
-0.88465315 -0.43940362 2.5005515
-0.92658162 -0.43560421 2.5136132
-0.98106027 -0.38773882 2.508543
-0.983365 -0.36407477 2.4972179
-0.9882682 -0.34899455 2.4912305
-0.98760605 -0.32406887 2.4781954
-0.99166381 -0.30673 2.4707458
-0.99246049 -0.28533614 2.4600463
-0.98837185 -0.26165843 2.4464252
-0.98924512 -0.24702108 2.4392223
-0.98851842 -0.22442365 2.4273596
-0.99349868 -0.21113309 2.4223187
-0.99557406 -0.17860326 2.4063594
-0.99724019 -0.16837901 2.4017065
-1.0000169 -0.15133841 2.3939512
-1.0010585 -0.13732304 2.3871279
-0.99582016 -0.10574014 2.3690362
-1.0015712 -0.070447482 2.3529744
-1.0026666 -0.063724943 2.349915
-1.0125657 -0.035927802 2.3391869
-1.0113585 -0.05267176 2.3473518
-1.0100491 -0.073198721 2.3574226
-1.0132524 -0.08898396 2.3666744
-1.0128901 -0.097524069 2.3709295
-1.0114388 -0.11430643 2.3790269
-1.0175415 -0.13113263 2.3898513
-1.0068332 -0.15809172 2.3998592
-1.0040367 -0.17525317 2.4076693
-1.0079631 -0.19941726 2.4214823
-1.006555 -0.2080583 2.4254148
-0.99872887 -0.2381064 2.4380407
-0.99617565 -0.2537756 2.4451718
-0.99979949 -0.278651 2.4592416
-1.0010812 -0.28909615 2.4650636
-1.0027143 -0.29747108 2.4699485
-0.99913657 -0.33648682 2.4886999
-0.99768734 -0.34538019 2.4927473
-0.99625528 -0.37809786 2.5090334
-0.9951812 -0.41992053 2.5301225
-0.53169382 -0.15655577 2.228946
-0.5553236 -0.17249373 2.24559
-0.61214858 -0.19024278 2.2750494
-0.5337407 -0.19273576 2.2482553
-0.44893733 -0.2079761 2.2257166
-0.43463475 -0.21082905 2.2220602
-0.41389948 -0.20527646 2.2117851
-0.3674069 -0.2039685 2.1944666
-0.35201237 -0.2041811 2.1890638
-0.35499233 -0.19176379 2.1837552
-0.33228505 -0.11271988 2.1350398
-0.33809018 -0.1007393 2.1309669
-0.33559638 -0.037744988 2.0977297
-0.35711598 -0.057657994 2.1156592
-0.39391285 -0.057927273 2.1289725
-0.41844183 -0.10046123 2.1595943
-0.49743152 -0.075764865 2.1751964
-0.50419551 -0.063855566 2.1715033
-0.51437229 -0.063890181 2.1751649
0.93611503 -0.58329749 1.9225037
0.90807331 -0.58110648 1.9314191
0.89179063 -0.58447033 1.9389763
0.85723162 -0.57808006 1.9480691
0.82726049 -0.57437778 1.9568994
0.81364405 -0.57164431 1.9603714
0.79368603 -0.56974143 1.9665403
0.7761606 -0.56656909 1.9711865
0.74982917 -0.56239736 1.9784726
0.7099781 -0.55671912 1.9898258
0.70318091 -0.55274081 1.990217
0.66679418 -0.5610711 2.0075226
0.64814472 -0.55663586 2.0119226
0.63179016 -0.55035204 2.0145521
0.61258769 -0.54748034 2.019953
0.60416961 -0.5499143 2.0242169
0.59627366 -0.55549598 2.0299101
0.58248079 -0.56755877 2.0410421
0.51007366 -0.54921675 2.05755
0.49411008 -0.54558599 2.0614016
0.4849731 -0.5451802 2.0644648
0.47010085 -0.545681 2.0700469
0.43375531 -0.54632294 2.08339
0.41305551 -0.54912943 2.0922427
0.39413241 -0.54927617 2.0990934
0.37356248 -0.54596138 2.1047566
0.32711646 -0.53890687 2.1177645
0.31280109 -0.53682417 2.1218209
0.29174915 -0.53376132 2.1277859
0.2730085 -0.53598756 2.1356392
0.2550247 -0.53294915 2.1405182
0.24250737 -0.53155011 2.1442816
0.21446034 -0.53150487 2.1543007
0.19457766 -0.53078401 2.1610496
0.17737684 -0.52727705 2.1654079
0.15123752 -0.52776206 2.1750162
0.13354906 -0.523265 2.1790404
0.10962364 -0.51937342 2.1856089
0.091732532 -0.51835185 2.1914904
0.069752485 -0.5177896 2.1990716
0.057506472 -0.51600808 2.2025416
0.025729209 -0.52026576 2.2161057
0.0088281333 -0.51797843 2.2209828
-0.0059039295 -0.51720804 2.225862
-0.030707896 -0.51359928 2.2328901
-0.046294063 -0.50776786 2.2354767
-0.062375724 -0.50542814 2.2400334
-0.069343746 -0.50538188 2.2425046
-0.087675184 -0.50696629 2.2498817
-0.12008032 -0.50404674 2.2599854
-0.13221809 -0.50175565 2.263155
-0.14641544 -0.50126565 2.2679868
-0.1730727 -0.50292236 2.2783821
-0.19283047 -0.49885839 2.2833698
-0.2095558 -0.49523547 2.2874982
-0.2279214 -0.49335665 2.2931094
-0.25183916 -0.48829097 2.2990723
-0.26524663 -0.48543417 2.3024058
-0.28790092 -0.48960978 2.3126614
-0.30571154 -0.48634887 2.3173642
-0.32707089 -0.48316163 2.3233755
-0.35239705 -0.48462695 2.3331959
-0.33055335 -0.48888394 2.3275604
-0.31204936 -0.49211556 2.3225942
-0.29500264 -0.49567467 2.3183181
-0.25289804 -0.49560872 2.3032086
-0.2338807 -0.49822953 2.297745
-0.22530782 -0.49849471 2.2948117
-0.20893258 -0.50087702 2.2901716
-0.19691327 -0.50435561 2.2876542
-0.18969405 -0.50508583 2.2854443
-0.17254329 -0.50617129 2.2798607
-0.159807 -0.50802416 2.2762518
-0.13116625 -0.50821078 2.2660928
-0.11438087 -0.51104677 2.2615387
-0.094963104 -0.51379299 2.2559962
-0.052963436 -0.51120406 2.239629
-0.033211857 -0.51938617 2.236758
-0.025391072 -0.52322543 2.235929
-0.018678069 -0.52523857 2.2345591
-0.015416622 -0.524418 2.23297
0.0090431273 -0.52401543 2.2240055
0.02676025 -0.52659315 2.2189853
0.039919168 -0.52773529 2.2148602
0.075791031 -0.52696937 2.2016227
0.084593922 -0.52825004 2.1991286
0.11069593 -0.52561176 2.1884279
0.11765632 -0.52541918 2.185837
0.13082066 -0.52622193 2.1815357
0.14785197 -0.53171051 2.1782556
0.16479763 -0.53716892 2.1749909
0.18340072 -0.53428143 2.1668475
0.21024212 -0.54119742 2.1607878
0.22367039 -0.5424667 2.1566315
0.24337986 -0.55053502 2.153717
0.28509662 -0.54470628 2.1357875
0.30739173 -0.54394388 2.1274133
0.33499685 -0.55091417 2.1211081
0.34516397 -0.55239332 2.1182272
0.36207107 -0.55462575 2.1133199
0.38882294 -0.55365795 2.1032443
0.40567973 -0.55181217 2.096261
0.4251084 -0.55345535 2.0901482
0.44869408 -0.55569524 2.0828533
0.46058008 -0.55507684 2.0782802
0.51530504 -0.56391937 2.063226
0.58965433 -0.575472 2.0425367
0.65438199 -0.56394982 2.0134447
0.67082524 -0.56464148 2.0079124
0.68508744 -0.5688228 2.0049527
0.69976103 -0.56776196 1.999154
0.724424 -0.5689674 1.9909424
0.75343299 -0.56890237 1.9805222
0.76617527 -0.56880438 1.9759095
0.78475273 -0.56995261 1.9698473
0.80311155 -0.57582229 1.9662877
0.82516325 -0.5776912 1.9593517
0.83433092 -0.58096248 1.9577488
0.84683931 -0.58858949 1.9571862
0.85624719 -0.58995819 1.9545205
0.88586223 -0.59023774 1.9440602
0.89952302 -0.58693439 1.9374729
0.92764187 -0.58911699 1.9285256
0.94501746 -0.59230667 1.9239419
0.94772613 -0.5842697 1.9188454
0.4740313 -0.25943384 1.9216666
0.4832277 -0.2678684 1.9227045
0.47928974 -0.26108962 1.9206339
-0.7089107 0.15843543 2.1306672
-0.72434336 0.15916142 2.1358202
-0.72662902 0.17090413 2.1306093
-0.66321969 0.21547818 2.0850191
-0.66415852 0.24544984 2.0699663
-0.6534372 0.24328318 2.06724
-0.63238019 0.2251288 2.0690217
-0.6044957 0.19640341 2.0737867
-0.5915122 0.18856779 2.0731611
-0.63127786 0.19191831 2.0856788
-0.64558637 0.19696304 2.088212
-0.61696517 -0.19886255 2.2811999
-0.62260604 -0.23685768 2.3027282
-0.63700038 -0.26451901 2.3220847
-0.63484275 -0.28330132 2.3309557
-0.63396126 -0.28828105 2.3331971
-0.62221724 -0.31435269 2.3423786
-0.61062431 -0.35189185 2.357502
-0.60749662 -0.36212501 2.3616364
-0.61304623 -0.37965038 2.3726218
-0.61611348 -0.39477932 2.3814878
-0.61403275 -0.40850106 2.3877883
-0.56459558 -0.46428967 2.3987317
-0.54786056 -0.46692008 2.3940904
-0.50553304 -0.46803245 2.3795061
-0.48691493 -0.47201735 2.3748858
-0.4690133 -0.47411129 2.3695512
-0.45221385 -0.47271833 2.3628211
-0.42362577 -0.48013693 2.3563941
-0.40420496 -0.47967944 2.3492055
-0.388385 -0.47939122 2.3433931
-0.36769655 -0.48159176 2.3371155
-0.62780893 -0.18634388 2.2786548
-0.63594049 -0.19578466 2.2864137
-0.64213949 -0.20788765 2.2948475
-0.64443076 -0.21315613 2.298373
-0.64203262 -0.2278721 2.3050702
-0.63963473 -0.24258834 2.3117676
-0.64331388 -0.26426047 2.3242126
-0.7335245 -0.24466175 2.3464496
-0.64635336 -0.27824789 2.3324826
-0.63982534 -0.31830958 2.3507147
-0.64359438 -0.32753918 2.3568032
-0.64488989 -0.33760801 2.362437
-0.64304161 -0.34443998 2.365283
-0.62710655 -0.38170657 2.3787119
-0.62591749 -0.3934119 2.3842962
-0.62487346 -0.40630686 2.3905432
-0.62034142 -0.42397693 2.3979933
-0.62169778 -0.44868726 2.4111664
-0.62546712 -0.45922214 2.4179251
-0.61131859 -0.47646576 2.4217129
-0.59361589 -0.48072845 2.417563
-0.56508136 -0.47367862 2.4037266
-0.53110129 -0.47257572 2.3909936
-0.51063615 -0.47437757 2.3845911
-0.49344441 -0.47409579 2.3782909
-0.47617292 -0.47964472 2.3749559
-0.46389303 -0.4858906 2.3737659
-0.45385969 -0.48971456 2.3721371
-0.43801945 -0.48387095 2.3634648
-0.40413725 -0.48880032 2.3538644
-0.37742952 -0.48359844 2.3416307
-1.0285568 0.0039268509 2.3244493
-1.0187817 0.0040154234 2.3209038
-1.0176568 -0.018686906 2.3321576
-0.51393324 -0.17355344 2.2313142
-0.44682831 -0.19487339 2.2182338
-0.41288373 -0.1528199 2.1844876
-0.35406834 -0.094414964 2.1334407
-0.3713029 -0.17814168 2.182601
-0.39042771 -0.17199042 2.1862903
-1.0409349 0.18139192 2.2377622
-1.0283624 0.17823908 2.2348795
-1.0199431 0.18490747 2.228441
-1.0260485 0.19537157 2.2252543
-1.0309076 0.21527687 2.2167737
-1.0436672 0.21564108 2.2211554
-1.0412241 0.20580524 2.2253308
-1.0505551 0.49794772 2.0786717
-1.0003345 0.41725489 2.1021218
-0.9856925 0.49397877 2.0574856
-1.0129 0.50718945 2.0604441
-0.22246739 -0.21481934 2.1481421
-0.21190399 -0.22604764 2.150125
-0.19710675 -0.2233406 2.1434369
-0.19760305 -0.22029489 2.1420507
-0.21076757 -0.21614939 2.1446359
0.31730786 -0.26296079 1.9795926
0.32000253 -0.26060414 1.9774177
0.35597405 -0.26296431 1.9657499
0.3204613 -0.2634196 1.9786991
-0.21827337 -0.10331783 2.0893903
-0.20247075 -0.11254703 2.0884707
-0.2144593 -0.11481512 2.0939279
-0.41768795 -0.10508728 2.1616995
-0.56637859 -0.3113547 3.1742923
-0.56530607 -0.30947906 3.1792383
-0.56608224 -0.31158108 3.1755221
-0.57190502 -0.32289404 3.148463
-0.74727309 -0.49141365 2.3652053
-0.74642777 -0.50956088 2.3654912
-0.74580979 -0.50723743 2.3685696
-0.73736143 -0.46787715 2.4120536
-0.73770499 -0.45072061 2.4137378
-0.73830706 -0.43592638 2.4138782
-0.89316165 0.37968361 1.8997555
-0.88355285 0.39653254 1.9440736
-0.88337368 0.40863639 1.9470699
-0.88063717 0.45248163 1.9668784
-0.8769576 0.46376607 1.9847391
-0.87190914 0.46641317 2.0068815
-0.85815215 0.4467454 2.0622718
-0.86223495 0.46829829 2.0487258
-0.86528087 0.51187795 2.0436819
-0.84989733 0.54899561 2.1165013
-0.8400206 0.51291013 2.1522255
-0.8369838 0.4502618 2.1537206
-0.84149677 0.43262094 2.1311152
-0.83318049 0.4379549 2.1677694
-0.82886702 0.43497491 2.1857235
-0.82715523 0.43353456 2.1928012
-0.82291967 0.43265802 2.2108083
-0.83048326 0.4874154 2.1884432
-0.83641887 0.52764529 2.1703873
-0.83793741 0.5427891 2.166661
-0.84266496 0.569309 2.1512635
-0.84461296 0.5890249 2.1465366
-0.84519398 0.6110642 2.1481009
-0.84654617 0.62343687 2.1445782
-0.8471114 0.62799788 2.142993
-0.84830892 0.64295429 2.1406093
-0.85234773 0.66945362 2.1281624
-0.85588831 0.68977159 2.116715
-0.85864753 0.71026015 2.1086504
-0.85998923 0.72320551 2.105278
-0.8647384 0.76006556 2.091691
-0.86567146 0.76674759 2.0889187
-0.86846858 0.7812233 2.0795848
-0.87194717 0.8074789 2.0694964
-0.87258929 0.8215394 2.06933
-0.8730765 0.82147372 2.0672278
-0.87561393 0.81169629 2.054544
-0.87443203 0.79138148 2.0558746
-0.89649117 0.78133821 1.9594036
-0.89591694 0.74934745 1.9559783
-0.89092112 0.70728183 1.9696652
-0.88976258 0.70222098 1.9737031
-0.87061584 0.7112909 2.0575023
-0.86148608 0.67783326 2.0905058
-0.8547045 0.64596713 2.11373
-0.85377443 0.63329524 2.1153872
-0.8525064 0.60840374 2.1162448
-0.85175276 0.58988577 2.1160691
-0.91704082 -0.096029162 1.7097644
-0.92149615 -0.09474209 1.6908903
-0.91737616 -0.093669236 1.7087605
-0.91375065 -0.089562565 1.7250679
-0.90962517 -0.084370524 1.7437198
-0.9041695 -0.086165279 1.7667916
-0.90327692 -0.085677922 1.7707099
-0.90083706 -0.085373104 1.7812316
-0.89921367 -0.086612821 1.787967
-0.90381712 -0.088154614 1.7679369
-0.906542 -0.091436118 1.7556446
-0.90746367 -0.092567921 1.7514827
-0.91226363 -0.092178851 1.7309648
-0.91787612 0.74354011 1.8607157
-0.92410761 0.72205788 1.8300318
-0.92451614 0.70913464 1.8259007
-0.92372954 0.69818085 1.8272586
-0.91903597 0.66945094 1.8421035
-0.91694045 0.65222436 1.8479214
-0.91556454 0.63872004 1.8513377
-0.91057003 0.61089402 1.8676398
-0.90966433 0.59459519 1.8685248
-0.90306914 0.57401574 1.8930268
-0.90247041 0.57205951 1.8952349
-0.89824325 0.55976307 1.9111041
-0.88912737 0.46725655 1.9331793
-0.89343637 0.45866403 1.9131145
-0.90337068 0.44586417 1.8681452
-0.90652126 0.44326636 1.8541527
-0.91074121 0.44451568 1.8362812
-0.91493696 0.42839295 1.8153161
-0.92102784 0.42263597 1.7881296
-0.93051279 0.40889749 1.7449154
-0.9325912 0.40342942 1.7349936
-0.93244934 0.39124301 1.7333589
-0.92902005 0.38834897 1.7475361
-0.92438745 0.39221552 1.7681192
-0.91994447 0.394521 1.7876019
-0.91576523 0.39474747 1.8055702
-0.89967978 0.37635177 1.8711828
-0.87562132 0.57002652 2.0100298
-0.87727153 0.59028381 2.0066798
-0.87800813 0.60660058 2.0065234
-0.87989229 0.62655586 2.0021145
-0.88602757 0.66732842 1.983302
-0.85712427 0.25709802 2.0317738
-0.86122918 0.23326212 2.0097785
-0.8668403 0.21677627 1.9826752
-0.86971116 0.21658677 1.9703258
-0.87330806 0.21239421 1.9541252
-0.88405681 0.19190925 1.9042481
-0.89361423 0.17843238 1.8607709
-0.90013856 0.12776849 1.8234595
-0.89929825 0.1091468 1.8236364
-0.89847797 0.090726346 1.8237644
-0.89727002 0.070350945 1.8251957
-0.8964361 0.063109338 1.8274399
-0.89641136 0.058453023 1.8266889
-0.90686053 0.044086695 1.7792231
-0.91864544 0.036513776 1.7272779
-0.92216551 0.03091225 1.7111474
-0.9258393 0.02427119 1.6941664
-0.92789936 0.018365443 1.684243
-0.92766649 0.036875904 1.6886489
-0.92846119 0.095066845 1.6959509
-0.92869335 0.10253057 1.6963286
-0.93022561 0.13390085 1.6955304
-0.92717189 0.14547934 1.7107605
-0.92311752 0.1657266 1.7318784
-0.91821778 0.18047142 1.7556096
-0.91575193 0.18331963 1.7667112
-0.91116047 0.18680018 1.7870468
-0.90706211 0.18905737 1.8050421
-0.9025352 0.1965754 1.825844
-0.89727211 0.20366088 1.8497242
-0.89434814 0.20838284 1.8631357
-0.8883974 0.21043104 1.8890384
-0.88344091 0.22369841 1.9127412
-0.87955648 0.22731568 1.9300693
-0.87499332 0.23453788 1.9509721
-0.87160146 0.24067411 1.9666508
-0.86687803 0.24448019 1.9876127
-0.86240399 0.25444603 2.0086384
-0.85906583 0.26201996 2.0243514
-0.8532477 0.2663044 2.0500968
-0.84608907 0.29332387 2.085777
-0.84503448 0.28365767 2.0885215
-0.84334207 0.27167833 2.0935762
-0.84761006 0.26721784 2.0744476
