# .PCD v0.7 - Point Cloud Data file format
VERSION 0.7
FIELDS x y z rgb
SIZE 4 4 4 4
TYPE F F F F
COUNT 1 1 1 1
WIDTH 1029
HEIGHT 1
VIEWPOINT 0 0 0 1 0 0 0
POINTS 1029
DATA ascii
-0.68942207 0.40394741 3.0244467 1.5673257e-39
-0.50909561 0.88993835 2.980175 1.103828e-39
-0.57213384 0.88904339 2.9313862 6.4500087e-40
-0.57607412 0.93068528 2.9124799 4.6061241e-40
-0.57621413 0.94713086 2.906117 3.6877691e-40
-0.56882918 0.96997923 2.9031839 5.5208917e-40
-0.51261961 1.0122809 2.9309046 7.3540284e-40
-0.48600429 0.94676894 2.9765604 7.361217e-40
-0.4889341 0.93382126 2.9792006 9.2015423e-40
-0.49625891 0.9075464 2.983484 9.2122622e-40
0.033585221 0.2056815 3.6633251 3.1299627e-39
0.033510625 0.19447063 3.6675301 3.1299599e-39
0.016362054 0.1598134 3.6673443 2.2108888e-39
0.0049296282 0.13670862 3.6672206 1.8421133e-39
0.0070964145 0.14846121 3.6644402 1.6566445e-39
0.011972001 0.17490442 3.6581843 1.7527834e-39
0.014680799 0.18959503 3.6547089 1.4754846e-39
0.01173775 0.25538772 3.6273959 2.6725943e-39
-0.0026913104 0.61537641 3.4792554 7.5611206e-39
-0.04188421 0.53616774 3.4788311 6.9142995e-39
-0.096377283 0.54477125 3.4330902 5.5101298e-40
-0.096877798 0.59808385 3.4124265 0
-0.095660992 0.63484544 3.399395 9.219563e-41
-0.092547834 0.64837891 3.3966749 0
-0.090933293 0.66383839 3.3920543 0
-0.098829478 0.69389707 3.3744698 0
-0.099190831 0.71184444 3.3673632 0
-0.097194888 0.7226705 3.3648019 7.1746481e-43
-0.099272668 0.77270913 3.3441541 0
-0.095812827 0.79147446 3.3397148 0
-0.032476891 0.83478737 3.3726053 7.4660411e-39
0.0066118175 0.81752628 3.4096334 8.2097635e-39
0.016890228 0.75289613 3.4422212 7.8427704e-39
0.01186939 0.73581994 3.4448018 7.4707537e-39
0.027659379 0.69176424 3.473861 7.655854e-39
0.023741841 0.6766721 3.4765468 7.0108448e-39
0.0084103104 0.6448127 3.4767139 5.7204451e-39
0.0021071341 0.63407362 3.4758852 7.4692809e-39
-0.35025087 0.2087 3.3630309 2.2108762e-39
-0.34242129 0.22876821 3.3615015 2.5764288e-39
-0.28631553 0.2543368 3.395505 2.3030747e-39
-0.27588108 0.1906569 3.4278531 2.1190365e-39
-0.28730953 0.16929209 3.4270706 2.0268423e-39
-0.98354703 0.95668387 2.5850253 4.7081162e-39
-0.98315871 0.99053097 2.5724566 3.0615821e-39
-0.97995299 0.97308993 2.5815873 1.298317e-39
-1.3255806 0.095300026 2.6460216 1.098243e-38
-1.3465134 0.091014989 2.6313372 1.5590436e-38
-1.3579329 0.086845361 2.6240227 1.4113512e-38
-1.3697524 0.083486177 2.6160886 1.8448496e-38
-1.3919404 0.084435813 2.5984349 1.5775181e-38
-1.4044819 0.074821055 2.5923169 1.8540331e-38
-1.3900373 0.077466816 2.6025684 2.0106579e-38
-1.3672059 0.075137794 2.621248 2.2040518e-38
-1.330938 0.089839794 2.6439228 1.7894601e-38
-1.3218006 0.092205741 2.6501446 1.9092792e-38
-1.0846759 -0.16506082 2.8654242 5.5497725e-40
-1.0844995 -0.14901534 2.8642309 9.2232624e-40
-1.0848128 -0.1325676 2.8638246 6.4860921e-40
-1.0908802 -0.16973446 2.8759403 8.2976347e-40
-1.0952432 -0.2121617 2.8855348 2.7623236e-40
-1.2000436 0.27020204 3.0316336 8.8576244e-39
-1.1926498 0.25427777 3.0203087 1.1990474e-38
-1.1754394 0.24584684 2.9923394 1.4203891e-38
-1.1707929 0.24506906 2.984704 1.429573e-38
-1.1591052 0.23642175 2.9658737 1.4666316e-38
-1.1556221 0.23609936 2.9601357 1.4573762e-38
-1.1370425 0.23379163 2.9295592 1.4297904e-38
-1.1206591 0.2249103 2.9029818 1.5035819e-38
-1.1091326 0.20987652 2.8847771 1.6693551e-38
-1.1056752 0.207037 2.8792224 1.4666316e-38
-1.0909249 0.15082866 2.8580031 1.6141095e-38
-1.0962633 0.15403546 2.8666456 1.365216e-38
-1.1022835 0.15784521 2.8763809 1.2638727e-38
-1.1065179 0.15924497 2.8833005 1.0518937e-38
-1.1184572 0.17303291 2.9022574 1.1529497e-38
-1.1253686 0.17621396 2.913501 1.1529141e-38
-1.1424721 0.23044947 2.9387205 1.4943985e-38
0.1515068 -0.31746101 0.83098245 0
0.16043612 -0.32394892 0.81658965 5.9714596e-39
0.15752433 -0.32411546 0.82141119 3.9557507e-39
0.15174006 -0.32431969 0.83098221 4.9767451e-39
0.1441893 -0.32680124 0.84360057 6.8202878e-39
0.12832092 -0.34219834 0.87069094 7.0968775e-39
0.12174325 -0.34599543 0.8817749 6.8213626e-39
0.10298064 -0.36171842 0.91366684 5.7153934e-39
0.098377995 -0.36299318 0.92134506 6.6380447e-39
0.091907978 -0.36490619 0.93214542 6.8210038e-39
0.082527585 -0.36883652 0.94786894 6.2678343e-39
0.078237072 -0.37284118 0.9551847 1.1704491e-38
0.069660924 -0.36863342 0.96912187 7.7429714e-39
0.055182155 -0.36821443 0.99302697 1.2073275e-38
0.034127027 -0.36390072 1.0275819 1.179777e-38
0.017212905 -0.34094927 1.0542458 1.2167632e-38
0.000245339 -0.32935625 1.0816364 8.7578365e-39
-0.0057879733 -0.3287712 1.0915744 1.0415566e-38
-0.026438501 -0.33429885 1.1260135 1.2165845e-38
-0.042416926 -0.30461255 1.1507528 1.1154221e-38
-0.050773066 -0.30143568 1.1643841 1.1892143e-38
-0.060343929 -0.30133009 1.1801957 1.1800298e-38
-0.077646859 -0.28646594 1.2079568 1.0326265e-38
-0.082508475 -0.28616074 1.2159742 1.1892505e-38
-0.089079939 -0.28380418 1.2267022 1.2260927e-38
-0.10562322 -0.2698229 1.2532573 9.6812586e-39
-0.11495648 -0.26680058 1.2685125 1.1064553e-38
-0.12150344 -0.26583171 1.2792779 1.1895031e-38
-0.12617792 -0.26408792 1.2869054 1.2078704e-38
-0.14031054 -0.24880739 1.3094034 1.032843e-38
-0.15282735 -0.24804981 1.3300471 1.1341504e-38
-0.1585333 -0.24507923 1.3393102 1.2354937e-38
-0.16332112 -0.24267422 1.3470876 1.2538613e-38
-0.17497419 -0.24165088 1.3662888 1.2171268e-38
-0.18187229 -0.24056405 1.3776281 1.2356018e-38
-0.19336912 -0.24151333 1.3966819 1.2355661e-38
-0.20089149 -0.22331087 1.4080912 1.2448581e-38
-0.22105756 -0.2042909 1.4403505 1.161956e-38
-0.22628739 -0.20377272 1.4489646 1.1988335e-38
-0.24819611 -0.20322567 1.4851418 1.2449658e-38
-0.25958934 -0.20211728 1.5039088 1.2632975e-38
-0.27363211 -0.18380444 1.526088 1.2080879e-38
-0.27881464 -0.18125845 1.5345099 1.2448578e-38
-0.29444331 -0.1678123 1.5595835 1.171173e-38
-0.30235642 -0.16629295 1.572576 1.1620262e-38
-0.31154346 -0.16208224 1.5875224 1.0881982e-38
-0.32430181 -0.16419558 1.6087266 1.0974524e-38
-0.3307009 -0.16682932 1.6194502 1.1251109e-38
-0.34822947 -0.14917591 1.6474272 9.8667317e-39
-0.37058342 -0.12501867 1.6830137 6.2689273e-39
-0.38832647 -0.10277154 1.7110872 1.0881998e-38
-0.39262071 -0.10033234 1.7180471 1.2907426e-38
-0.40157959 -0.083908752 1.7319304 3.5073954e-39
-0.41255358 -0.076527841 1.7496521 5.9099076e-39
-0.43646932 -0.083450377 1.7895659 2.0387688e-39
-0.44443619 -0.087360218 1.8029522 1.1342993e-38
-0.44794297 -0.087929785 1.8087798 7.7452022e-39
-0.45613334 -0.086778775 1.8222512 1.1982139e-39
-0.45809689 -0.082976244 1.8252826 7.0064923e-45
-0.47783327 -0.063141361 1.8567859 3.5963863e-39
-0.48458764 -0.062331665 1.8679034 1.8435553e-39
-0.50716025 -0.061693538 1.9051725 9.1845305e-41
-0.51576567 -0.051827561 1.9188401 6.4679453e-40
-0.52381331 -0.023728829 1.9305615 1.2057599e-39
-0.55138123 0.015762597 1.9739033 7.8485354e-39
-0.55944753 0.014639949 1.9872973 1.1621733e-38
-0.573048 0.017074745 2.0096376 1.3280907e-38
-0.58438134 0.017797196 2.0283275 1.2170982e-38
-0.59267938 0.023346357 2.0417295 9.7796115e-39
-0.61142844 0.058253448 2.0707545 1.8435665e-39
-0.61244982 0.068092912 2.0718894 1.9361138e-39
-0.6152035 0.092827655 2.0750506 1.1074364e-39
-0.61082482 0.092485353 2.0678337 1.108151e-39
-0.59342062 0.088914655 2.0392706 4.150611e-39
-0.58154911 0.07247588 2.0205746 4.9789269e-39
-0.57192349 0.06670884 2.0049906 6.3636621e-39
-0.55734551 0.064846255 1.9810024 3.9658526e-39
-0.54545587 0.062845021 1.9614652 4.5168572e-39
-0.53940338 0.059695095 1.9516395 4.6086871e-39
-0.52234644 0.047756657 1.9241207 3.6881769e-39
-0.5131427 0.041647527 1.9092532 3.780011e-39
-0.50469762 0.037081782 1.8955529 4.240629e-39
-0.49866131 0.030821029 1.8859285 3.5999456e-39
-0.48104623 0.024113232 1.8571936 3.7821802e-39
-0.47556993 0.020855416 1.8483261 2.4903498e-39
-0.46734515 0.017319338 1.8349319 4.1477145e-39
-0.459434 0.01376458 1.8220569 4.1505998e-39
-0.44564432 0.0086826244 1.7995527 4.1477075e-39
-0.43813145 0.0023002338 1.7874951 3.4126704e-39
-0.43021274 -0.0021459335 1.7746578 4.1480649e-39
-0.42325166 -0.007542491 1.7634566 3.411583e-39
-0.41505647 -0.015644966 1.7503679 4.7048736e-39
-0.4067542 -0.018915065 1.7368308 8.7618597e-39
-0.40132183 -0.01884242 1.7278488 3.4115802e-39
-0.38506851 -0.024781965 1.7013211 3.5023409e-39
-0.3758508 -0.031983458 1.6864917 5.3473521e-39
-0.36005631 -0.03559589 1.6605916 3.8704018e-39
-0.35080364 -0.039705884 1.6455308 4.0555105e-39
-0.34658867 -0.044046704 1.6388088 3.9633135e-39
-0.33931115 -0.052883968 1.6272781 3.5034367e-39
-0.3294304 -0.058350995 1.6112556 3.5026955e-39
-0.32638597 -0.058632798 1.60624 3.9629547e-39
-0.30006146 -0.075568065 1.5636857 3.778925e-39
-0.29234293 -0.078136258 1.5510738 4.1455467e-39
-0.28442693 -0.08186397 1.5382007 3.871115e-39
-0.27792022 -0.090553038 1.5279355 4.8878047e-39
-0.2622712 -0.095638774 1.5023584 3.408702e-39
-0.2558741 -0.09858945 1.4919518 5.4391876e-39
-0.24577405 -0.10263427 1.4754872 3.9622289e-39
-0.23959187 -0.10925848 1.4656423 3.2264757e-39
-0.23196812 -0.11635999 1.4534416 7.7473364e-39
-0.22205162 -0.11952572 1.4372308 1.2266007e-38
-0.2165453 -0.11937998 1.4281225 3.9640562e-39
-0.21014638 -0.12317213 1.4177603 3.9607939e-39
-0.20036173 -0.1270873 1.4018093 3.2257414e-39
-0.18602073 -0.13465762 1.3785336 3.6856378e-39
-0.17842714 -0.13867068 1.3662094 4.0533441e-39
-0.16298836 -0.15233909 1.3414624 3.5005318e-39
-0.15872103 -0.15319733 1.334458 9.1309813e-39
-0.15395199 -0.15336968 1.3265859 4.0562462e-39
-0.14650919 -0.15728678 1.3145056 7.8380789e-39
-0.14110917 -0.15984368 1.3057247 3.316142e-39
-0.1388762 -0.16220245 1.3021669 3.4090523e-39
-0.1259502 -0.16875212 1.2811725 3.9607841e-39
-0.11620838 -0.1722872 1.2652711 3.5008906e-39
-0.10941853 -0.17557116 1.2542342 4.8860026e-39
-0.10527501 -0.17844868 1.247548 3.7771117e-39
-0.093070216 -0.18939313 1.2279923 5.7182856e-39
-0.082883552 -0.19333848 1.2113789 6.3636579e-39
-0.078647368 -0.19307928 1.2043632 3.9611541e-39
-0.066658288 -0.19785742 1.1848177 3.960424e-39
-0.061632995 -0.20385261 1.1768495 4.2362976e-39
-0.055541728 -0.20912415 1.1670787 5.1622364e-39
-0.044853877 -0.21366896 1.1496706 5.9937991e-39
-0.040541943 -0.21347943 1.1425337 4.6057976e-39
-0.032578848 -0.21760942 1.1296053 4.9764004e-39
-0.026564432 -0.22348046 1.1199955 4.8820159e-39
-0.017822847 -0.22901154 1.1058592 5.5273952e-39
-0.0084951427 -0.23466299 1.0907609 6.4522451e-39
-0.0028007394 -0.23575331 1.0814114 5.4351869e-39
0.0029836386 -0.23810312 1.0719836 6.0812976e-39
0.010683755 -0.23912749 1.0593154 5.8972665e-39
0.02883129 -0.25323692 1.0301163 6.4522381e-39
0.036462095 -0.25556761 1.0176361 6.0827255e-39
0.042024586 -0.25825119 1.0085938 5.6210299e-39
0.056597028 -0.27065617 0.98520738 4.4231972e-39
0.067173466 -0.2743884 0.96793771 4.7008799e-39
0.073986642 -0.27815756 0.95688951 4.0548042e-39
0.077132121 -0.27916837 0.95174789 3.6906726e-39
0.089642197 -0.29021436 0.93169343 4.70124e-39
0.098429419 -0.29290378 0.91732204 4.4239357e-39
0.10409092 -0.29427335 0.90804243 3.6867308e-39
0.11250339 -0.29810199 0.89435458 3.0410054e-39
0.11624604 -0.30009311 0.88828111 3.9614974e-39
0.12758084 -0.31107095 0.87016517 4.7930727e-39
0.13687159 -0.31387517 0.85496813 4.4239343e-39
0.1411185 -0.31395715 0.84795398 4.1462586e-39
-0.98491687 0.94848776 2.63799 1.8763246e-40
-0.98091412 0.9670285 2.6303329 1.1099671e-39
-0.98107481 0.94714373 2.6317158 1.2907486e-39
-1.0019553 0.89569408 2.6691151 2.3509886e-38
-1.0009102 0.86804473 2.6689413 1.9454735e-38
-0.99937433 0.85223401 2.6672914 2.1115324e-38
-0.99736392 0.81161511 2.6662512 2.332478e-38
-1.000784 0.78294784 2.6735144 6.4587458e-39
-1.0008473 0.77030635 2.674329 9.1345812e-39
-1.0037031 0.74168521 2.6806569 2.3509886e-38
-1.0051602 0.72854829 2.6838031 1.7332075e-38
-1.0128968 0.70781279 2.6977539 2.2312065e-38
-1.0213505 0.66857821 2.7139294 2.268157e-38
-1.0204923 0.6487816 2.7136233 2.3509886e-38
-1.0199169 0.63034016 2.7137086 2.3509886e-38
-1.0325668 0.62493879 2.7349184 2.3509886e-38
-1.0595789 0.57177293 2.7825475 2.1022403e-38
-1.0591047 0.54866827 2.783062 2.2407142e-38
-1.0728424 0.53586829 2.8064852 2.2496818e-38
-1.0851469 0.52993286 2.8271539 2.1392274e-38
-1.0982606 0.51578933 2.8496213 1.8353783e-38
-1.115077 0.53040028 2.8765924 8.12223e-39
-1.1297282 0.52986163 2.9008362 8.5817676e-39
-1.1435761 0.5240348 2.9240499 9.2267741e-39
-1.1664561 0.47196969 2.9647882 1.715705e-38
-1.175368 0.42890364 2.9819362 1.4757794e-38
-1.175349 0.40864179 2.9830434 1.4850713e-38
-1.1754539 0.39292476 2.9840996 1.3652882e-38
-1.1738067 0.36617336 2.9828804 1.3283026e-38
-1.1736115 0.35833207 2.9829986 1.2638737e-38
-1.1859171 0.3085185 3.0061347 1.2175235e-38
-1.1856548 0.29797238 3.0062935 1.2175587e-38
-1.1654055 0.24457037 2.9758284 1.392839e-38
-0.75951856 0.90370446 2.2679968 7.0975865e-39
-0.76436406 0.90726626 2.2758045 7.0053881e-39
-0.78157973 0.86339921 2.3067212 8.1168084e-39
-0.79746866 0.86106211 2.3331115 6.0892304e-39
-0.79966623 0.86126554 2.3367321 6.6427545e-39
-0.80525404 0.85240358 2.3464646 1.5680334e-39
-0.80170125 0.83291036 2.3416884 2.0261417e-39
-0.79235625 0.82978171 2.3264201 1.8442713e-39
-0.78938615 0.83183527 2.3213959 2.3081081e-39
-0.77843732 0.84912854 2.3023295 4.1509585e-39
-0.76629841 0.8555038 2.2819099 7.2845211e-39
-0.7594496 0.85805112 2.2704477 4.9811172e-39
-0.75921178 0.869937 2.269387 7.56145e-39
-0.75351822 0.89803779 2.2583985 7.1901451e-39
-1.1711582 0.71145773 2.9591036 1.1990828e-38
-1.1843451 0.64878488 2.9844182 1.4941104e-38
-1.1841371 0.6122573 2.9861269 1.5034385e-38
-1.1836168 0.59134716 2.9864416 1.5218415e-38
-1.1834921 0.56943065 2.9874673 1.5403884e-38
-1.1865971 0.54207593 2.9941356 1.8169745e-38
-1.1823031 0.51038557 2.9888198 1.6603146e-38
-1.1819777 0.49731675 2.9890163 1.7155965e-38
-1.1803255 0.46847865 2.9879057 1.7247805e-38
-1.1808071 0.45026898 2.9897251 1.7247448e-38
-1.1855752 0.40844443 2.9999549 1.3651447e-38
-1.190886 0.3863892 3.0099711 1.3560697e-38
-1.195801 0.36467308 3.0193143 1.3467423e-38
-1.2002734 0.34825262 3.0276279 1.2820603e-38
-1.2005253 0.32969752 3.0290868 1.245182e-38
-1.2151023 0.29229563 3.0552793 1.2175584e-38
-1.2049227 0.2770234 3.039314 1.0147642e-38
-1.0229689 0.84989846 2.7064168 1.6235084e-38
-1.038039 0.85157782 2.7312281 1.2184617e-38
-1.0384692 0.83129913 2.7330787 2.0106576e-38
-1.0768725 0.79273331 2.7987134 2.1208598e-38
-1.0900514 0.78934765 2.8206844 1.494218e-38
-1.1197404 0.83009052 2.8674612 8.4895594e-39
-1.1358128 0.87370872 2.891573 7.3864404e-39
-1.1360327 0.88254732 2.8914399 7.6626657e-39
-1.1391501 0.95338118 2.892612 6.3748178e-39
-1.1484437 0.87467271 2.9123933 8.4920733e-39
-1.1511271 0.87085503 2.9170427 9.3189515e-39
-1.1505742 0.859622 2.9167602 9.9635922e-39
-1.1454388 0.79053086 2.9121549 8.0296602e-39
-1.1566527 0.77259141 2.9316959 8.3048108e-39
-1.071018 -0.069945976 2.8375077 1.6598899e-39
-1.0807521 -0.088803262 2.8546548 1.1999907e-39
-1.0744117 -0.06780225 2.8429964 1.6598913e-39
-1.0713538 -0.024328342 2.8355 1.4780168e-39
-1.071254 -0.0093961693 2.834496 1.7535246e-39
-1.0628785 0.030763427 2.8183978 1.9386348e-39
-1.0626323 0.0099109979 2.8191624 1.6627723e-39
0.086526334 0.44838971 3.5417349 1.6419115e-38
0.097107932 0.52259427 3.5310009 1.991824e-38
0.094001405 0.57742339 3.5175624 2.3509886e-38
0.094516642 0.58334398 3.5165403 2.3509886e-38
0.083569966 0.6076256 3.5057645 1.9360373e-38
0.056673236 0.65370113 3.4822295 8.4899461e-39
0.060650103 0.67154044 3.4803715 8.6757821e-39
0.064627089 0.68937975 3.4785132 1.180755e-38
0.081601746 0.71728653 3.4810269 2.3509886e-38
0.079020001 0.72476166 3.4781067 2.2680138e-38
0.045049712 0.77592295 3.4499049 9.4129814e-39
0.01369265 0.71343273 3.4476299 7.010493e-39
-0.014516015 0.64929932 3.447298 9.1262701e-39
-0.017342858 0.63257724 3.4494941 9.2184602e-39
0.0069452357 0.59167874 3.4705932 7.1008614e-39
0.008195797 0.57023573 3.4758668 6.454413e-39
-0.0097991163 0.53060615 3.4753773 9.2173756e-39
-0.078300744 0.51122952 3.4450431 3.2250436e-39
-0.092842996 0.49303952 3.4416516 1.8474719e-40
-0.093183272 0.47308952 3.4458001 7.1746481e-43
-0.092533037 0.45799923 3.4493952 3.5873241e-43
-0.087587997 0.38890666 3.4668491 9.2552961e-41
-0.16317818 0.33564156 3.44028 2.1190365e-39
-0.12974623 0.29448369 3.4660444 1.5655152e-39
-0.12421129 0.20852855 3.4874465 1.4733168e-39
-0.14264549 0.1655387 3.4874635 1.6577053e-39
-0.14861852 0.15318228 3.4871283 1.7502554e-39
-0.12756075 0.17004487 3.4940915 1.1063335e-39
-0.069218099 0.12517537 3.533216 3.317242e-39
-0.071442842 0.10874961 3.5356514 2.9484553e-39
-0.10842665 0.06552054 3.5263698 4.6061241e-40
-0.16731024 0.10723207 3.4876559 1.7495464e-39
-0.18301573 0.067460179 3.4883516 1.6573507e-39
-0.18837109 0.050139304 3.4894023 1.5651551e-39
-0.2158671 -0.00050018425 3.4865081 1.2885682e-39
-0.20399126 0.00464918 3.491379 1.2885682e-39
-0.19558218 0.0074815182 3.4950044 1.2885682e-39
-0.12019962 0.053426672 3.5230541 8.2903059e-40
-0.064111553 0.0055244314 3.5616992 3.6852944e-39
-0.066254616 -0.01191766 3.5643959 3.2250352e-39
-0.052471101 -0.025881166 3.5743673 6.7273593e-39
-0.033908021 -0.028009741 3.5841854 7.0968747e-39
0.012430897 -0.011669125 3.6040049 1.197467e-39
0.092775576 0.0068971757 3.6404841 7.7422413e-39
0.081510596 0.051521122 3.6251433 6.7306075e-39
0.082760997 0.080402069 3.6195199 7.1843774e-39
0.089140557 0.15370014 3.6068637 1.0042817e-38
0.092620388 0.16465525 3.6062458 8.6631298e-39
0.091267042 0.17813285 3.6026452 1.0780382e-38
0.078043781 0.19078566 3.59324 9.859508e-39
0.054870944 0.27193183 3.563988 3.1339227e-39
0.072025694 0.29396933 3.5678635 4.4250147e-39
0.072902337 0.30404261 3.5661242 4.2406318e-39
0.081037417 0.37348127 3.5551884 1.493786e-38
0.082469016 0.38993019 3.5523484 1.6690289e-38
0.084546536 0.40669334 3.5497658 1.7151271e-38
0.084305957 0.43235248 3.5440881 1.6598815e-38
0.45003605 0.074751094 3.8058763 1.3824265e-38
0.4325321 -0.0037666159 3.814055 1.5113195e-38
0.41496655 -0.0094326679 3.8064275 1.4836599e-38
0.40000367 -0.0097145056 3.7989461 1.4006488e-38
0.44196007 0.073909074 3.8019879 1.4006841e-38
0.41488722 0.091606185 3.7845092 1.1888175e-38
0.34765959 0.046672657 3.7603514 1.2809743e-38
0.34627169 0.030726148 3.7631047 1.3730261e-38
0.33769664 0.029200021 3.7591128 1.3545867e-38
0.30448157 0.01907859 3.7445614 1.4466733e-38
0.2739867 0.028399924 3.7271717 1.2624267e-38
0.25976256 0.024833389 3.7207737 1.1887787e-38
0.23738211 0.036677822 3.706928 1.0228998e-38
0.23897444 0.045088336 3.7059093 1.0413385e-38
0.24868882 0.067743003 3.7059004 1.1518648e-38
0.24942319 0.091007248 3.7012331 1.0691777e-38
0.2509352 0.113322 3.6971633 1.124314e-38
0.25411987 0.13014303 3.6951261 1.151973e-38
0.26850012 0.14710082 3.6987031 1.3178186e-38
0.27985325 0.13669068 3.7066798 1.2807965e-38
0.31290528 0.12442738 3.725996 1.2993429e-38
0.32642883 0.12137287 3.7334745 1.455932e-38
0.36807504 0.099366911 3.759232 1.2993024e-38
-1.3984536 1.0309613 2.6670504 7.7516356e-39
-1.3904483 0.96834499 2.684644 9.5937363e-39
-1.4054475 0.94629747 2.6818573 1.0422417e-38
-1.440542 0.90613216 2.6728644 1.0149083e-38
-1.4426178 0.88945794 2.6754289 9.8728651e-39
-1.4455284 0.86831516 2.6785398 9.6906473e-39
-1.4477409 0.85211837 2.6809318 1.2549436e-38
-1.4488118 0.83366817 2.6843872 1.3931999e-38
-1.4577656 0.79158437 2.6889863 2.3509886e-38
-1.4617531 0.7631219 2.6931391 2.3509886e-38
-1.459976 0.74883163 2.6971295 2.3509886e-38
-1.4605249 0.73384637 2.7000976 2.3509886e-38
-1.4572089 0.7064696 2.7076972 2.3509886e-38
-1.4656901 0.67450041 2.7103446 2.3509886e-38
-1.4515266 0.63135278 2.7268271 2.3509886e-38
-1.440279 0.58427101 2.742692 2.3509886e-38
-1.4408845 0.57731438 2.7438929 2.3509886e-38
-1.4390656 0.54338515 2.7521567 2.3326215e-38
-1.4415395 0.52977639 2.7538564 2.3509886e-38
-1.4508106 0.50734448 2.7540405 2.3509886e-38
-1.4393848 0.44641811 2.7729926 2.3509886e-38
-1.4353287 0.42582139 2.7794971 2.3509886e-38
-1.4261905 0.39641249 2.7904718 2.2957438e-38
-1.4260812 0.37206772 2.7957983 2.3509886e-38
-1.4273963 0.35269043 2.7993312 2.3509886e-38
-1.428941 0.34240881 2.8007791 2.3509886e-38
-1.478296 0.29055259 2.7871292 2.0195526e-38
-1.5021112 0.28573415 2.7761679 1.9553049e-38
-1.5032357 0.26833415 2.7793689 1.1259051e-38
-1.508207 0.25271869 2.7802444 1.2823853e-38
-1.5096316 0.23635054 2.7830706 1.1810055e-38
-1.508531 0.22317369 2.7864788 1.1810051e-38
-1.5086755 0.21031328 2.7891905 1.0333838e-38
-1.5103164 0.19145802 2.7924461 9.3204004e-39
-1.5074071 0.18008378 2.7963755 1.4485519e-38
-1.5065738 0.17446458 2.7980123 1.5591867e-38
-1.4997424 0.17854744 2.8005722 1.5959932e-38
-1.444458 0.18800522 2.8263912 1.5590792e-38
-1.4370877 0.18308683 2.8311713 1.6881892e-38
-1.4120457 0.19756794 2.8406587 1.3193348e-38
-1.3679522 0.21123818 2.8599246 1.1532021e-38
-1.3545015 0.20657545 2.8677144 1.3930188e-38
-1.3370218 0.20839794 2.8761308 1.4758871e-38
-1.2967286 0.21346085 2.8953454 1.4667755e-38
-1.2881664 0.21482477 2.8993659 1.4666672e-38
-1.2979958 0.21867034 2.8935785 1.3744349e-38
-1.3097551 0.21777616 2.8878446 1.3560678e-38
-1.3329632 0.22320266 2.8749709 9.9614468e-39
-1.34542 0.2267324 2.8679278 9.4090059e-39
-1.363458 0.29502264 2.8440475 1.060935e-38
-1.349885 0.31319672 2.8469541 1.3097907e-38
-1.3486233 0.32769307 2.8444512 1.337522e-38
-1.3454561 0.34877238 2.8414829 1.3928035e-38
-1.3385319 0.40465164 2.8328738 1.5499723e-38
-1.334987 0.44537985 2.8258414 1.8070758e-38
-1.33872 0.47689313 2.8171358 1.5128776e-38
-1.3376857 0.48877481 2.8150842 1.4945465e-38
-1.3360311 0.5077855 2.8118017 1.4666697e-38
-1.335533 0.53609478 2.805923 1.4195277e-38
-1.3349125 0.5432238 2.804692 1.3186161e-38
-1.3192749 0.59440088 2.8014929 2.0094341e-38
-1.3288234 0.61909598 2.7913325 2.3509886e-38
-1.3315274 0.6328271 2.7869961 1.7330273e-38
-1.3331985 0.64946866 2.7825506 1.6133173e-38
-1.333001 0.66069967 2.7802181 2.046743e-38
-1.3392469 0.68277723 2.772289 1.2538648e-38
-1.3413191 0.70341498 2.7667756 1.2174866e-38
-1.3342016 0.77456164 2.7549574 2.1942544e-38
-1.3341961 0.78525591 2.7526445 2.0377757e-38
-1.3330703 0.80225366 2.7495315 1.4662701e-38
-1.343531 0.83157402 2.7379096 1.6509158e-38
-1.3368134 0.89147878 2.7283239 2.3509886e-38
-1.3489639 0.93094742 2.7136528 1.1710683e-38
-1.3502384 0.94729352 2.7094707 1.5121171e-38
-1.3550326 0.99138391 2.6975071 1.1346178e-38
-1.3536419 1.0073617 2.6947484 1.1439445e-38
-1.3526486 1.0187744 2.6927779 1.1530568e-38
-1.3629405 1.0244867 2.6863527 1.1346542e-38
-1.3761604 1.0287969 2.6787562 1.1346174e-38
-1.3901026 1.0408089 2.6691275 1.0884481e-38
-1.397468 1.0422852 2.6650951 8.0282211e-39
0.043182399 1.1539019 3.3671176 1.1533849e-38
0.082221359 1.1880294 3.3794062 2.3509886e-38
0.072658449 1.1682466 3.3788695 2.0376699e-38
0.079967335 1.0878326 3.3999662 2.1114264e-38
0.1112983 1.0628359 3.4211717 2.3509886e-38
0.10034845 1.0473204 3.4190121 2.3509886e-38
0.049489189 1.0106503 3.4013157 1.1533492e-38
0.034978639 0.98952931 3.3985748 1.0611171e-38
0.037500121 1.0094002 3.3955431 1.0794844e-38
0.039250135 1.0295069 3.3920712 1.1071069e-38
0.025857095 1.0737592 3.3757381 1.0979232e-38
0.026549447 1.0889225 3.3728039 1.0978874e-38
0.031037794 1.1089588 3.3707275 1.0979591e-38
0.031212194 1.1244754 3.3674555 1.0978874e-38
-1.1439644 1.0893198 2.7826943 7.9378065e-39
-1.1391339 1.0289044 2.7982116 7.9378163e-39
-1.1408262 1.00946 2.8015685 7.752702e-39
-1.1424161 0.99119395 2.8047228 7.7530705e-39
-1.1368804 0.96653759 2.8128519 7.3799636e-39
-1.1356143 0.95097107 2.8168607 7.4779228e-39
-1.1301486 0.90837008 2.8288405 1.2457578e-38
-1.1338755 0.88892639 2.8311722 7.5647192e-39
-1.134918 0.87694752 2.8332405 8.4844993e-39
-1.1665355 0.82676387 2.8281696 1.4758146e-38
-1.2014656 0.77267373 2.8222749 2.3509886e-38
-1.1937596 0.74736273 2.83164 2.3509886e-38
-1.1950108 0.73298818 2.8341219 2.3509886e-38
-1.2042617 0.71777946 2.8327522 2.3509886e-38
-1.2138654 0.71439928 2.8286426 2.3509886e-38
-1.2101887 0.72953916 2.8272178 2.3509886e-38
-1.210832 0.74925226 2.8226249 2.3509886e-38
-1.2384351 0.79346985 2.7991364 2.3509886e-38
-1.2380215 0.79822254 2.7983158 2.3509886e-38
-1.2154391 0.84688765 2.7991612 2.3509886e-38
-1.2132204 0.85732287 2.7980199 2.3509886e-38
-1.2176375 0.91095024 2.7841811 2.3509886e-38
-1.2162017 0.92744857 2.7813325 2.3509886e-38
-1.2144229 0.93908626 2.7797089 2.3509886e-38
-1.2134516 0.95342112 2.7770946 2.3509886e-38
-1.2149932 0.96821249 2.7731147 2.3509886e-38
-1.229733 1.0198326 2.7545071 2.3509886e-38
-1.2283202 1.0360647 2.7517045 2.3509886e-38
-1.2305771 1.0542121 2.7466371 2.3509886e-38
-1.2248892 1.0754856 2.7448978 2.3509886e-38
-1.2109349 1.0900205 2.7487845 2.0747258e-38
-1.1984284 1.1006333 2.7527907 1.3930539e-38
-1.1808606 1.1024649 2.7612493 1.466738e-38
-1.1750048 1.1030755 2.7640691 1.4944677e-38
-1.1428229 1.1049246 2.7798908 8.6746541e-39
-1.1390876 1.0966392 2.7835677 7.113829e-39
-1.1024568 0.29384378 2.9758668 9.6902718e-39
-1.1302067 0.24432731 2.9726009 1.4296453e-38
-1.1030751 0.23880547 2.9874725 1.4849624e-38
-1.0905504 0.23411413 2.9948018 1.5403521e-38
-1.0921661 0.25084668 2.9903641 1.4113501e-38
-1.0925599 0.27060148 2.9858882 1.2822045e-38
-1.1015788 0.30393055 2.9741251 1.0887007e-38
-1.1017247 0.33399311 2.9675417 1.2638011e-38
-1.1013786 0.31421295 2.9719994 1.171605e-38
-1.1059707 0.33272478 2.9656761 9.2274831e-39
-1.1043754 0.35105607 2.9625111 1.0609706e-38
-1.103505 0.36105496 2.9607847 1.1439834e-38
-1.1094587 0.38768157 2.9520178 8.4906538e-39
-1.0993316 0.36149007 2.9627941 1.4482272e-38
-1.0997666 0.35649058 2.9636571 1.3930548e-38
-1.185114 0.23117147 2.9477723 1.4758878e-38
-1.1937253 0.22619215 2.9445095 1.5588993e-38
-1.2102779 0.22446634 2.9365396 1.5496441e-38
-1.1978518 0.22736636 2.9421751 1.4943267e-38
-0.62793589 0.13043347 3.2504435 1.5676718e-39
-0.62936485 0.11401545 3.2532783 1.841742e-39
-0.62211508 0.066667259 3.2671852 1.3818554e-39
-0.66848904 0.028591072 3.2520545 1.2907388e-39
-0.68723929 0.021213142 3.2442005 6.4536941e-40
-0.6607877 -0.020583767 3.2665846 2.5804211e-39
-0.65190655 -0.023568604 3.2717078 1.2921878e-39
-0.62645996 -0.047548175 3.289727 4.6277041e-40
-0.58212519 -0.096702099 3.3227184 3.5949373e-39
-0.56783587 -0.066371225 3.323354 1.1041826e-39
-0.56661016 -0.052288111 3.3209224 1.1963754e-39
-0.54572982 -0.01047801 3.3223941 1.380775e-39
-0.54289711 0.0060054706 3.3202527 1.4729623e-39
-0.5230062 0.04715414 3.3213687 1.6573507e-39
-0.50546664 0.088057779 3.321353 1.7491904e-39
-0.50339001 0.10705055 3.3182871 1.658071e-39
-0.50252491 0.1218572 3.3155169 1.841742e-39
-0.5080871 0.19047365 3.2978551 2.026492e-39
-0.49034941 0.22640514 3.2990155 1.8431811e-39
-0.48252335 0.24564397 3.2987947 1.7520645e-39
-0.48082432 0.26516512 3.2954242 2.3027201e-39
-0.51188266 0.28745919 3.2749407 2.0261374e-39
-0.52460784 0.28378615 3.2693217 2.118689e-39
-0.57569587 0.25096861 3.2506762 1.8428308e-39
-0.61811733 0.27280498 3.2245643 1.6580836e-39
-0.58690667 0.23774871 3.2478878 1.5673257e-39
-0.56905752 0.1669156 3.2722228 1.9342963e-39
-0.58629304 0.1451741 3.2682428 1.841742e-39
-0.61824661 0.13252822 3.2548738 1.7502736e-39
0.05476908 0.068404436 3.6080077 1.4715245e-39
0.010094786 0.00019282242 3.6002591 3.4094278e-39
-0.042990401 0.046120986 3.5635552 8.0173736e-39
-0.038538232 0.069579057 3.5607197 8.1092189e-39
0.005599563 0.12433967 3.5711107 4.7952335e-39
-1.111674 0.40974393 2.9461238 9.2274957e-39
-1.1117668 0.41403267 2.9451485 9.5037239e-39
-1.1079719 0.43407714 2.9427209 1.1626023e-38
-1.1071512 0.43003181 2.9440105 1.0704426e-38
1.2844495 -0.38332701 2.5749495 1.2167654e-38
1.2905613 -0.37709871 2.5942836 1.1983623e-38
1.2693024 -0.36311215 2.635587 1.2352044e-38
1.2642109 -0.34950024 2.6767263 1.2536795e-38
1.2670577 -0.34290862 2.6969697 1.2628635e-38
1.2463046 -0.32823247 2.7404029 1.1246791e-38
1.2116376 -0.32003075 2.7632809 1.2997776e-38
1.1645395 -0.30390742 2.8095279 1.3459112e-38
1.1606499 -0.28862229 2.855835 1.4195609e-38
1.1271702 -0.27869087 2.8840513 1.0323432e-38
1.1105158 -0.2710011 2.9064593 1.4564021e-38
1.0919583 -0.26300195 2.9296944 1.4288872e-38
1.0926425 -0.27009943 2.9081244 1.447291e-38
1.0438938 -0.2934005 2.8342264 1.456439e-38
1.0002531 -0.28550339 2.8556337 1.484205e-38
0.96638608 -0.26863053 2.9049633 1.5211194e-38
0.9855004 -0.25209174 2.9564786 1.5301954e-38
1.0282071 -0.24460533 2.9818568 1.4750215e-38
1.0234765 -0.2361528 3.0073082 1.4933887e-38
1.011301 -0.22674431 3.0352204 1.5118639e-38
1.0101261 -0.21808352 3.0615208 1.5210837e-38
0.98875809 -0.20843218 3.0896168 1.5487057e-38
0.97733527 -0.20820868 3.0896068 1.5671088e-38
0.99585485 -0.22641557 3.0352874 1.5119356e-38
0.99102646 -0.23554547 3.0071955 1.5027522e-38
0.96605325 -0.24363287 2.9810598 1.530375e-38
0.96991587 -0.25164407 2.9568994 1.5302678e-38
0.94854695 -0.26831087 2.9048581 1.5394865e-38
0.97218269 -0.28495154 2.855617 1.5117921e-38
0.96944886 -0.29255015 2.8323145 1.4934249e-38
0.95341539 -0.30004331 2.8085287 1.5026084e-38
0.90972465 -0.30654514 2.7860894 1.511864e-38
0.88899505 -0.32780072 2.7201138 1.5118278e-38
0.91392279 -0.34917283 2.656544 1.5025723e-38
0.9072901 -0.32812873 2.7202213 1.5026083e-38
0.94149864 -0.3071146 2.7862763 1.5394149e-38
0.9665584 -0.3002789 2.8086059 1.493389e-38
1.0319812 -0.3015807 2.8085976 1.4656942e-38
1.0664181 -0.32464406 2.7404532 1.4104122e-38
1.0378025 -0.30035585 2.8126793 1.4564746e-38
1.0524836 -0.29432878 2.8319192 1.447255e-38
1.1080345 -0.28767926 2.8555253 1.4104121e-38
1.2708887 -0.38308394 2.5748696 1.2076179e-38
1.2595881 -0.38288134 2.5748031 1.2168734e-38
1.1668828 -0.38099965 2.5749276 1.2905939e-38
1.1505511 -0.38242289 2.5696065 1.2906297e-38
1.0973011 -0.36675963 2.6140807 1.3917577e-38
1.1098291 -0.35359183 2.6549332 1.3642785e-38
1.0910283 -0.32524124 2.7401226 1.4103047e-38
1.1126341 -0.32563591 2.7402275 1.3826824e-38
1.1500199 -0.31878468 2.7633498 1.3734621e-38
1.1568164 -0.31630874 2.7712996 1.3734631e-38
0.052610733 -0.0035722945 3.6568027 9.1979129e-40
0.091720402 -0.017539155 3.6166389 9.9513196e-39
0.066987999 -0.0036740452 3.6573622 5.989102e-39
0.044614583 0.0084241582 3.6928475 1.3825617e-39
0.043348167 0.010053797 3.6977334 1.198532e-39
0.028759412 0.010472825 3.6981273 1.6580696e-39
0.013553758 0.0089808349 3.6926649 1.3807652e-39
0.0050957398 -0.0025647674 3.6569979 2.7636997e-39
0.16858968 -0.15244679 3.2104998 7.1861738e-39
0.15022472 -0.1418363 3.2416978 7.4645656e-39
0.16925561 -0.1420591 3.2421703 7.2787254e-39
0.20768169 -0.13351931 3.2704966 8.203574e-39
0.2094928 -0.12250963 3.3041301 9.6779852e-39
0.21721068 -0.11325694 3.3327708 1.1520819e-38
0.21119794 -0.12394843 3.2998521 1.0414121e-38
-0.86713696 -0.15044168 3.1539826 9.1943957e-40
-0.84787607 -0.15047966 3.1550314 6.4429742e-40
-0.85033178 -0.15208647 3.1499901 8.2796701e-40
-0.87555915 -0.1598314 3.1248822 2.7623236e-40
-0.89330286 -0.18659355 3.04232 3.6770352e-40
-0.93673414 -0.1964974 3.0095372 3.6734198e-40
-0.89185661 -0.18869306 3.0360143 0
-0.50969708 -0.076241232 3.401531 9.1979129e-40
-0.54862553 -0.087853283 3.3638191 9.1979129e-40
-0.58896279 -0.086938716 3.3641651 8.3120541e-40
-0.60902762 -0.084377378 3.3707511 4.5990475e-40
-0.60490972 -0.075114839 3.3992038 0
-0.5478462 -0.075441457 3.4016597 1.0123429e-39
-0.53054827 -0.075867422 3.4014082 1.0119869e-39
0.84185487 -0.13637854 3.3001339 1.7423179e-38
0.82218212 -0.14453338 3.2741139 1.8067823e-38
0.82876319 -0.13572142 3.3013434 1.751501e-38
0.8253631 -0.12594517 3.3309064 1.7422459e-38
0.10276412 -0.6405794 1.7201813 1.2164753e-38
0.10271339 -0.64345378 1.711426 1.2073634e-38
0.098236881 -0.64049822 1.7201548 1.2164756e-38
-0.88334858 -0.15203243 3.1481586 1.8439126e-40
-0.88361484 -0.16048585 3.1224024 2.7658689e-40
0.05592091 -0.04273589 3.5377517 7.3738329e-39
0.086051524 -0.055097472 3.5019326 1.0504142e-38
0.050969068 -0.075985029 3.4362102 7.0021637e-39
0.071261995 -0.087234341 3.4031839 7.926278e-39
0.085289568 -0.098640829 3.3692997 7.3748951e-39
0.0679131 -0.10005248 3.3639505 6.2660448e-39
0.049464982 -0.088178128 3.3989923 6.1745638e-39
0.031002097 -0.076115601 3.4346058 6.0823668e-39
0.0060660904 -0.064574562 3.4682395 6.3589397e-39
-0.0079305423 -0.053173937 3.5021079 6.1745568e-39
-0.045452189 -0.039469115 3.5415695 6.4518626e-39
-0.060359392 -0.014504955 3.6166828 7.9244507e-39
-0.049821161 -0.01459098 3.6170578 7.4641956e-39
-0.0094312476 -0.04035629 3.5410459 7.4645978e-39
0.49441049 -0.30481389 2.7662499 1.2260578e-38
0.50994372 -0.31222394 2.7446258 1.3368719e-38
0.5262239 -0.31885841 2.7254086 1.4659821e-38
0.53123969 -0.32599878 2.7039697 1.4290686e-38
0.55053306 -0.33411634 2.680419 1.2814115e-38
0.5712961 -0.34734803 2.6413846 1.5027522e-38
0.5903486 -0.36091301 2.6012318 1.5946593e-38
0.60990143 -0.37073582 2.572504 1.4568353e-38
0.63016409 -0.38012841 2.5451291 1.4937137e-38
0.64317018 -0.38680258 2.525593 1.5028976e-38
0.64940506 -0.39376643 2.5047655 1.2541124e-38
0.67033225 -0.40595394 2.4689205 1.2446741e-38
0.67415267 -0.41079345 2.4544153 1.4291767e-38
0.68536395 -0.41705415 2.4360297 1.1986158e-38
0.70534587 -0.42826587 2.4030986 1.1617737e-38
0.72962809 -0.44028562 2.3679674 9.6801782e-39
0.71185482 -0.46728382 2.2846847 8.2028803e-39
0.73197609 -0.48032662 2.2461865 8.1103245e-39
0.7362929 -0.48602006 2.2291112 8.2947172e-39
0.73715651 -0.48725834 2.2253931 8.2025202e-39
0.75428414 -0.49167347 2.2129848 8.2025202e-39
0.77151102 -0.50107425 2.1854014 8.0181275e-39
0.77802968 -0.50605392 2.1706328 8.0184863e-39
0.79724157 -0.52162254 2.1243889 7.9255746e-39
0.79969251 -0.52538228 2.1130886 8.0170457e-39
0.83231217 -0.53530568 2.0848451 7.9259319e-39
0.83945858 -0.53908604 2.0737658 7.9259263e-39
0.8585183 -0.54636735 2.052747 7.8333775e-39
0.86341655 -0.54884291 2.045505 7.6497009e-39
0.86958367 -0.5541935 2.0295858 7.5571452e-39
0.87363881 -0.55602014 2.0242691 7.7418938e-39
0.95249546 -0.56820667 1.9919297 7.190885e-39
0.96775734 -0.5750519 1.9720091 7.2823561e-39
0.98104882 -0.57142067 1.9838696 8.3894338e-39
0.98503584 -0.56130642 2.0149081 9.7709235e-39
1.0073569 -0.55122966 2.0469408 1.0048952e-38
1.0271155 -0.5429225 2.0734303 9.8642065e-39
1.0089679 -0.53887731 2.0846505 9.8641981e-39
0.99058992 -0.53254378 2.1028247 9.6798069e-39
0.98388439 -0.5253312 2.1243811 1.0418094e-38
0.95276028 -0.51140815 2.1648941 1.0325897e-38
0.96936405 -0.48323891 2.251672 1.1801028e-38
0.9427821 -0.46282235 2.3122323 1.290522e-38
0.87800819 -0.47139996 2.2821975 1.226092e-38
0.84618282 -0.46231601 2.3079333 1.2722258e-38
0.82752216 -0.44466421 2.3605537 1.2997766e-38
0.81153977 -0.43580851 2.3865523 1.2906299e-38
0.78145027 -0.42707393 2.4113297 1.1061308e-38
0.77134037 -0.41563013 2.4455643 1.2628633e-38
0.75401342 -0.40367454 2.4809206 1.3183602e-38
0.73651218 -0.39127377 2.517622 1.3827897e-38
0.71522206 -0.38403851 2.5383661 1.38279e-38
0.69661593 -0.3716903 2.5748403 1.4104484e-38
0.68576545 -0.36503053 2.5944631 1.4012294e-38
0.65663165 -0.35796747 2.6142082 1.3737499e-38
0.63179815 -0.3432084 2.6576474 1.4565112e-38
0.62980705 -0.33664268 2.6775191 1.4841692e-38
0.63081753 -0.32989129 2.698138 1.4842046e-38
0.58715332 -0.31501299 2.7408016 1.4842769e-38
0.56055832 -0.30703858 2.7634754 9.4953862e-39
0.5470584 -0.29941007 2.7858877 1.5026451e-38
0.50551164 -0.29081529 2.809546 1.4842776e-38
0.49642348 -0.27525297 2.8563831 1.474914e-38
0.47018161 -0.26642317 2.8816826 1.4105203e-38
0.44492689 -0.24960257 2.9313736 1.3552385e-38
0.42696089 -0.24117187 2.9559584 1.3919371e-38
0.42389792 -0.23250067 2.9821765 1.5025349e-38
0.39320385 -0.22290364 3.0095432 1.5210816e-38
0.38086003 -0.21435596 3.0348241 1.3182514e-38
0.37278011 -0.21369275 3.036355 1.4565444e-38
0.33018926 -0.20267142 3.0673392 1.3917565e-38
0.3251451 -0.19374822 3.0942049 1.4840589e-38
0.3175405 -0.17597549 3.1478622 1.5301931e-38
0.28982809 -0.16595796 3.1766896 1.2720452e-38
0.2710124 -0.15578839 3.2065172 1.3550566e-38
0.22993284 -0.14464687 3.2379594 1.1519747e-38
0.33174044 -0.237597 2.9610863 1.143188e-38
0.31383181 -0.2292545 2.9854062 1.1800675e-38
0.26053575 -0.20229465 3.0642748 1.0326614e-38
0.22951569 -0.21071009 3.0367746 7.74407e-39
0.24095047 -0.19118361 3.0969236 9.7720179e-39
0.22941151 -0.1815003 3.125711 9.8624073e-39
0.25029507 -0.15486953 3.2080626 1.1614819e-38
0.1826212 -0.1525614 3.2109993 7.3705707e-39
0.38966939 -0.27050903 2.8643737 1.1154228e-38
0.34713849 -0.24722394 2.9327037 1.1247488e-38
0.45189023 -0.27299067 2.8605788 1.3921176e-38
0.46714151 -0.28112739 2.8367255 1.4105929e-38
0.4732106 -0.28879634 2.8137405 1.4659101e-38
0.48887029 -0.29650265 2.7912223 1.4565829e-38
-1.2216228 -0.4417316 2.2455866 1.6520343e-38
-1.2158355 -0.44475478 2.2367311 1.6522496e-38
-1.2064743 -0.45143238 2.2169642 1.7162116e-38
-1.2083433 -0.4517765 2.2158036 1.6519626e-38
-1.2138687 -0.44798842 2.2270036 1.6518908e-38
1.0684491 -0.4214851 2.4457002 1.3181807e-38
1.046073 -0.40369597 2.4985142 1.3550234e-38
1.0121387 -0.39671615 2.5177155 1.3826817e-38
0.99089628 -0.40251637 2.49877 1.3826456e-38
1.0079249 -0.40285081 2.498781 1.3735336e-38
1.0293945 -0.40335426 2.4985461 1.3550591e-38
0.3544744 0.043442979 3.8182132 1.317816e-38
0.38878468 0.057606142 3.8634138 1.2993778e-38
0.40907583 0.057242423 3.8635333 1.3453313e-38
0.42853656 0.05681134 3.8633971 1.36377e-38
0.3703742 0.043076459 3.8180585 1.3545866e-38
0.32814595 0.031318583 3.7797031 1.271755e-38
0.32388914 0.01579728 3.7321844 1.4559289e-38
0.30096227 0.0306093 3.7758999 1.32682e-38
0.30745843 0.031137131 3.7778997 1.2346972e-38
-1.3699836 -0.33002716 2.5767505 6.6409454e-39
-1.358683 -0.33022973 2.576817 6.7342242e-39
-1.3293014 -0.33075634 2.5769899 6.732076e-39
-1.3157407 -0.3309994 2.5770698 6.2714454e-39
-1.2902863 -0.32566586 2.5948491 6.3643739e-39
-1.2500288 -0.30645356 2.6557839 6.8249849e-39
-1.2572614 -0.29190078 2.6996591 3.3215608e-39
-1.2393934 -0.27099854 2.7643857 1.3861714e-39
-1.1617974 -0.27238932 2.7648425 4.1473614e-39
-1.1497164 -0.27236968 2.7656326 3.964768e-39
-1.129444 -0.26594943 2.7864075 4.2402843e-39
-1.1142464 -0.25794348 2.8117042 3.5044877e-39
-1.0876623 -0.25132406 2.8334672 3.7821732e-39
-1.1291401 -0.24280928 2.8568864 4.2038954e-45
-1.1330935 -0.240922 2.8623941 9.219563e-41
-1.1680824 -0.24939872 2.8344674 9.18397e-41
-1.1890314 -0.25578025 2.8137693 1.4012985e-45
-1.1930159 -0.25701165 2.8097789 9.1836897e-41
-1.244243 -0.27091163 2.7643571 7.3899016e-40
-1.2853416 -0.2758891 2.7467155 5.6051939e-45
-1.308388 -0.28201199 2.7266786 7.2447131e-43
-1.3311062 -0.28804144 2.7069457 7.272739e-43
-1.3704436 -0.29547313 2.6819382 3.671402e-43
-1.4137468 -0.30771479 2.6420445 1.44614e-42
-1.422947 -0.31555495 2.6176155 1.0166869e-39
-1.4228237 -0.3162275 2.6155751 2.8641644e-39
-1.4039259 -0.32919869 2.5772209 3.6910734e-39
-1.3933653 -0.3294614 2.5770597 4.2438786e-39
-1.2974454 -0.36857882 2.4637487 8.3973651e-39
-1.248625 -0.37526169 2.4463515 9.873584e-39
-1.2298328 -0.40363675 2.3610871 1.1350883e-38
-1.2308115 -0.37565234 2.446239 1.0057977e-38
-1.1915091 -0.37047762 2.4643722 9.8739469e-39
-1.2001568 -0.37032256 2.4643214 9.9657824e-39
-1.2390723 -0.36962509 2.4640923 9.1363707e-39
-1.2498821 -0.36943132 2.4640286 9.0441765e-39
-1.2628539 -0.36919886 2.4639523 8.8590719e-39
-1.2415608 -0.40841144 2.3458395 1.1076815e-38
-1.2278371 -0.40865734 2.3459203 1.0800225e-38
-0.08552032 0.83143497 3.3040302 0
-0.084288627 0.89614171 3.2861581 2.5111268e-42
-0.035905007 0.97021633 3.2846198 8.6638571e-39
-0.029467158 0.99388254 3.2804949 8.2972367e-39
-0.028627694 1.0107681 3.2760396 7.9288116e-39
-0.026782129 1.029528 3.2714577 7.9277312e-39
-0.027037144 1.0436457 3.2673476 7.6518631e-39
-0.032021258 1.0998924 3.2493732 6.9160904e-39
-0.031625167 1.1121932 3.2460408 7.0082706e-39
-0.050527006 1.1710206 3.2217276 8.2950675e-39
-0.034759842 1.1942537 3.2214835 7.2837953e-39
-0.022193952 1.2130582 3.2212071 8.944418e-39
0.0063979705 1.2577255 3.2200441 2.6653818e-39
0.049578797 1.2797172 3.231195 1.2086299e-38
0.075362831 1.2811322 3.2411795 2.028595e-38
0.066049568 1.2559786 3.2445683 1.4759978e-38
0.064529628 1.230599 3.2511606 1.5495013e-38
0.084295198 1.1685835 3.276727 2.3509886e-38
0.079503119 1.1574678 3.2779517 2.3509886e-38
0.072261706 1.1258969 3.2839971 1.4206086e-38
0.065531105 1.1017587 3.2881382 1.3011145e-38
0.065324917 1.0870119 3.2922411 1.3011149e-38
0.064457625 1.0739802 3.2955911 1.301115e-38
0.012991616 1.0281968 3.2878568 1.0330975e-38
0.0064413901 1.0071564 3.2911911 1.0332045e-38
0.0045782505 0.98821843 3.2958164 1.0790508e-38
0.072879143 0.95266831 3.33342 1.8900485e-38
0.087593324 0.96594274 3.3355784 2.3509886e-38
0.089804381 0.90264636 3.3544371 2.3509886e-38
0.092286326 0.88774246 3.3596675 2.3509886e-38
0.091677174 0.87008464 3.3644347 2.3509886e-38
0.088963263 0.84249747 3.3711727 2.3509886e-38
0.10864089 0.81041831 3.3882053 2.3509886e-38
0.10699596 0.79369885 3.3922889 2.3509886e-38
0.087215707 0.77506018 3.389612 2.2680493e-38
0.077250093 0.75194508 3.3921597 1.9453298e-38
0.080750771 0.66123718 3.4193189 1.7148051e-38
0.016140817 0.70411491 3.3811219 8.3001332e-39
-1.4454826 1.0071644 2.7063458 1.1070667e-38
-1.4645659 0.98826301 2.7040243 1.0978847e-38
-1.465873 0.97497696 2.7072694 1.1162874e-38
-1.4694668 0.95027435 2.7128336 1.0609706e-38
-1.4698113 0.93198633 2.7178864 9.8728609e-39
-1.4174988 0.92973709 2.7395968 8.4863111e-39
-1.4363739 0.9717018 2.7200813 1.1253252e-38
-1.4341835 0.9828319 2.717804 1.1160702e-38
-1.4150144 1.0110369 2.717519 8.5806676e-39
-1.3742975 1.0348246 2.7271674 1.1253975e-38
-1.3754946 1.0435346 2.7242129 1.097956e-38
-1.3755935 1.0634065 2.7185321 9.7774059e-39
-1.3736168 1.083498 2.7136247 1.1624565e-38
-1.3798434 1.0828391 2.7113037 1.1532368e-38
-1.4106748 1.0680317 2.703088 1.0240188e-38
-1.4257439 1.0515361 2.7017007 8.8561755e-39
-1.4268332 1.0404643 2.7044048 9.4079143e-39
-0.22954376 1.0322884 3.1890008 1.5655208e-39
-0.22850235 0.94976157 3.2128468 1.7495464e-39
-0.19035555 1.0286958 3.2058055 1.5658754e-39
-0.16489109 1.0661709 3.2054248 1.7495464e-39
-0.16094011 1.0899338 3.2002709 1.6573563e-39
-0.15865879 1.1049235 3.1969345 1.0155785e-39
-0.15701255 1.1652679 3.1804678 1.6566417e-39
-0.16826281 1.1532488 3.1793478 1.2907262e-39
-0.21757834 1.1342888 3.1648655 1.4740385e-39
-0.22617033 1.0470836 3.1861594 1.7495464e-39
-0.49057654 -0.053475127 3.3920701 9.2086609e-40
-0.49051198 -0.04165002 3.3887393 1.2885682e-39
-0.52930218 0.0017555972 3.3607926 1.4733196e-39
-0.54945189 0.05006668 3.3389626 1.6573507e-39
-0.54461443 0.068004593 3.335819 1.5662341e-39
-0.52838647 0.090581387 3.3359468 1.7495464e-39
-0.52868617 0.10213848 3.3325455 1.7495464e-39
-0.58508211 0.13067554 3.301728 1.9343006e-39
-0.60760003 0.10419735 3.300174 1.749552e-39
-0.61088413 0.089794375 3.3029399 1.3825659e-39
-0.61330962 0.07146623 3.3071659 1.4736895e-39
-0.62828135 0.045786444 3.3084247 1.2900143e-39
-0.63212776 0.031993311 3.310791 1.2900157e-39
-0.63399082 0.013055319 3.3154163 1.2900143e-39
-0.62877232 -0.04635809 3.334384 3.6878252e-40
-0.61487353 -0.05840759 3.3434026 7.0064923e-45
-0.59115732 -0.05938958 3.3532345 9.2266255e-40
-0.56496596 -0.051158089 3.361448 1.1963754e-39
-0.55285078 -0.05055853 3.3661578 1.196374e-39
-0.5045625 -0.054167099 3.3866329 1.012703e-39
-1.1697644 1.1066636 2.7891617 1.3651787e-38
-1.1616169 1.0332755 2.8132761 1.0886974e-38
-1.1517752 0.98319286 2.8314571 8.3973511e-39
-1.1492828 0.96505648 2.8376093 8.0264064e-39
-1.1463938 0.94666463 2.8439944 8.0282141e-39
-1.1404687 0.93090063 2.8508561 1.0059047e-38
-1.1496542 0.91059959 2.8529186 8.1211272e-39
-1.1522254 0.89177161 2.8572278 9.6855648e-39
-1.1522554 0.87831557 2.8610356 9.870319e-39
-1.1606934 0.84490347 2.8671212 1.2268494e-38
-1.1626856 0.8253333 2.8718741 1.3005342e-38
-1.1528044 0.79020315 2.8858268 1.0424942e-38
-1.1562244 0.77385825 2.8890891 1.1808233e-38
-1.164443 0.74548608 2.8938324 1.4296804e-38
-1.1663195 0.72641355 2.8984904 1.4755987e-38
-1.1685774 0.70751512 2.9029458 1.4941101e-38
-1.1700722 0.68826872 2.9078071 1.5125495e-38
-1.1690286 0.67658305 2.9115448 1.5033305e-38
-1.1320974 0.6205104 2.9423382 1.3102597e-38
-1.1285423 0.61128742 2.9463882 1.4483731e-38
-1.1317593 0.5861491 2.9522285 1.3007158e-38
-1.1334046 0.57093626 2.9558842 1.0795896e-38
-1.1371311 0.52398568 2.9677107 8.8550965e-39
-1.1330003 0.51413792 2.9721704 9.5966342e-39
-1.1340791 0.50477207 2.9743943 8.3066212e-39
-1.1355232 0.49009392 2.9779797 7.1095214e-39
-1.1374487 0.47052303 2.9827595 6.6478188e-39
-1.1359622 0.45131305 2.988811 7.7530579e-39
-1.1378877 0.43174216 2.9935911 9.7799324e-39
-1.1372731 0.41347763 2.9990237 9.5948405e-39
-1.1360996 0.38704675 3.006999 8.9512704e-39
-1.1293939 0.37212768 3.0139353 9.8725064e-39
-1.1321744 0.35001829 3.0190914 9.1338526e-39
-1.1346791 0.33225232 3.0231256 8.9483795e-39
-1.1346128 0.31694993 3.0274963 8.5799571e-39
-1.1286477 0.27062351 3.0430501 9.4097052e-39
-1.1689799 0.25650004 3.0308132 1.2729832e-38
-1.2289262 0.25121757 3.0081658 1.1622772e-38
-1.2573179 0.24044251 2.999788 1.4942174e-38
-1.2752272 0.23685277 2.9935932 1.4665588e-38
-1.2864791 0.23687258 2.9890552 1.4204241e-38
-1.3176011 0.2393111 2.975827 1.1530933e-38
-1.3302183 0.23957583 2.9706695 9.2271188e-39
-1.3437462 0.23814438 2.965627 8.7654274e-39
-1.3615367 0.25386035 2.9539995 1.1713532e-38
-1.3612245 0.27432996 2.9483144 1.2083758e-38
-1.3554026 0.29303029 2.9453514 1.272877e-38
-1.3541938 0.30981481 2.9410734 1.300644e-38
-1.3535477 0.32987103 2.9356401 1.4110993e-38
-1.3505838 0.36954471 2.9255722 2.3509886e-38
-1.3189379 0.36684674 2.939085 2.3509886e-38
-1.3100772 0.36265701 2.9438436 2.3141826e-38
-1.2468309 0.36534059 2.9685576 1.6420218e-38
-1.2167295 0.39676955 2.971761 2.3509886e-38
-1.2082653 0.41326711 2.9704871 2.3509886e-38
-1.2043406 0.43048099 2.9671814 2.3509886e-38
-1.1998076 0.47655687 2.9559278 1.7156345e-38
-1.1990919 0.483832 2.9541512 1.660353e-38
-1.2023678 0.52764171 2.9403954 1.8997356e-38
-1.2187155 0.55353624 2.9264598 2.3509886e-38
-1.2172962 0.56796354 2.922936 2.3509886e-38
-1.2196077 0.5830158 2.9177318 2.3509886e-38
-1.2292616 0.59943229 2.9091833 2.3509886e-38
-1.2307745 0.60634995 2.90661 2.3509886e-38
-1.225849 0.65641499 2.8943822 2.3509886e-38
-1.22789 0.66063207 2.8923631 2.3509886e-38
-1.2241075 0.66960853 2.8913386 2.3509886e-38
-1.2218868 0.71428359 2.8795509 2.3509886e-38
-1.2269744 0.72381771 2.8747954 2.3509886e-38
-1.2420329 0.78995317 2.849956 2.3509886e-38
-1.2566414 0.79490191 2.8426669 2.3509886e-38
-1.2611569 0.80601758 2.837692 2.3509886e-38
-1.2223411 0.87452531 2.8338802 2.3509886e-38
-1.2211146 0.89009815 2.8299539 2.3509886e-38
-1.2228949 0.90305263 2.8255594 2.3509886e-38
-1.2266529 0.91428137 2.820858 2.3509886e-38
-1.2270645 0.98610789 2.8003027 2.3509886e-38
-1.229093 0.99419636 2.7971897 2.3509886e-38
-1.2451733 1.0158693 2.78456 2.3509886e-38
-1.2331723 1.0737066 2.7729762 2.3509886e-38
-1.2327224 1.0782796 2.7718592 2.3509886e-38
-1.2341232 1.0984522 2.7655685 2.3509886e-38
-1.2336769 1.1029892 2.7644603 2.3509886e-38
-1.1790031 1.1111163 2.7841761 1.4574468e-38
-0.076161325 0.76654315 3.3262208 1.4349296e-42
-0.077774294 0.7501483 3.3302252 9.3629158e-41
-0.072149783 0.73065621 3.3380239 3.04209e-39
-0.073916428 0.71270001 3.3424094 2.9498972e-39
-0.07354673 0.69516283 3.3475366 4.0551644e-39
-0.072111577 0.68440312 3.3511689 1.8438846e-40
-0.082298502 0.64965522 3.3569295 0
-0.073273852 0.61239034 3.3711431 3.1342871e-39
-0.075290419 0.59361279 3.3756614 3.0417285e-39
-0.1379654 0.54821497 3.3633027 1.6573507e-39
-0.17889269 0.5707165 3.3404293 1.841742e-39
-0.19701463 0.53472805 3.3433456 2.1186876e-39
-0.15661143 0.51348191 3.3656514 2.3916788e-39
-0.1523459 0.4335081 3.3900716 1.9342935e-39
-0.06238455 0.43024087 3.4272361 6.6341225e-39
-0.054624356 0.39067718 3.4415929 9.0297263e-39
-0.047286119 0.34653234 3.4570801 8.8464252e-39
-0.048964389 0.32947341 3.4612467 8.938974e-39
-0.051283289 0.31122127 3.4654939 9.122645e-39
