# .PCD v0.7 - Point Cloud Data file format
VERSION 0.7
FIELDS x y z rgb
SIZE 4 4 4 4
TYPE F F F F
COUNT 1 1 1 1
WIDTH 750
HEIGHT 1
VIEWPOINT 0 0 0 1 0 0 0
POINTS 750
DATA ascii
-0.8524611 0.99024254 1.0001482 2.3509598e-38
-0.87149823 0.98926443 1.0001535 2.3509598e-38
-0.89054161 0.98956174 1.000159 2.3509598e-38
-0.9110347 0.99114853 1.0001649 2.3509598e-38
-0.93130219 0.98966253 1.0001707 2.3509598e-38
-0.95113236 0.98998684 1.0001763 2.3509598e-38
-0.97211665 0.98714519 1.0001824 2.3509598e-38
-0.99050248 0.99005085 1.0001876 2.3509598e-38
-0.98825538 0.9704259 1.0001869 2.3509598e-38
-0.98866689 0.9492197 1.000187 2.3509598e-38
-0.98679167 0.93068963 1.0001864 2.3509598e-38
-0.9927997 0.90966648 1.0001882 2.3509598e-38
-0.99142694 0.88704824 1.0001879 2.3509598e-38
-0.99094969 0.8680293 1.0001876 2.3509598e-38
-0.98860872 0.8514843 1.000187 2.3509598e-38
-0.99393868 0.82904494 1.0001886 2.3509598e-38
-0.99349827 0.80846792 1.0001884 2.3509598e-38
-0.99048483 0.79368246 1.0001876 2.3509598e-38
-0.99428779 0.77026671 1.0001886 2.3509598e-38
-0.98942828 0.74712843 1.0001873 2.3509598e-38
-0.99197912 0.7318359 1.000188 2.3509598e-38
-0.98875153 0.71196198 1.0001872 2.3509598e-38
-0.99118561 0.69030195 1.0001878 2.3509598e-38
-0.98814976 0.67033267 1.0001869 2.3509598e-38
-0.99180168 0.64786869 1.0001879 2.3509598e-38
-0.99409997 0.62974924 1.0001886 2.3509598e-38
-0.99017364 0.60844481 1.0001876 2.3509598e-38
-0.98969638 0.58767694 1.0001874 2.3509598e-38
-0.98863113 0.57236224 1.0001872 2.3509598e-38
-0.98996586 0.54992175 1.0001875 2.3509598e-38
-0.99115908 0.52850002 1.0001879 2.3509598e-38
-0.98977655 0.506908 1.0001874 2.3509598e-38
-0.99017978 0.48792362 1.0001876 2.3509598e-38
-0.99054092 0.4509289 1.0001876 2.3509598e-38
-0.98793882 0.4304747 1.0001869 2.3509598e-38
-0.99076521 0.40651789 1.0001876 2.3509598e-38
-0.98841184 0.38994646 1.000187 2.3509598e-38
-0.99064589 0.37080517 1.0001876 2.3509598e-38
-0.99106926 0.33279291 1.0001879 2.3509598e-38
-0.98854953 0.30759382 1.0001872 2.3509598e-38
-0.98851037 0.29212475 1.0001872 2.3509598e-38
-0.98904306 0.2726559 1.0001872 2.3509598e-38
-0.99037665 0.25103748 1.0001876 2.3509598e-38
-0.98997349 0.23307264 1.0001875 2.3509598e-38
-0.98962998 0.20993403 1.0001874 2.3509598e-38
-0.99053019 0.19032049 1.0001876 2.3509598e-38
-0.98826772 0.16978365 1.000187 2.3509598e-38
-0.98949885 0.14966029 1.0001874 2.3509598e-38
-0.98919612 0.12971509 1.0001874 2.3509598e-38
-0.99227941 0.11041141 1.0001882 2.3509598e-38
-0.99008685 0.071209252 1.0001876 2.3509598e-38
-0.9891448 0.047320057 1.0001874 2.3509598e-38
-0.99059916 0.029774537 1.0001878 2.3509598e-38
-0.99037671 0.0086802905 1.0001876 2.3509598e-38
-0.99061447 -0.011124074 1.0001878 2.3509598e-38
-0.98927224 -0.031187415 1.0001874 2.3509598e-38
-0.98876679 -0.049535036 1.0001872 2.3509598e-38
-0.98862469 -0.068994403 1.0001872 2.3509598e-38
-0.98868865 -0.089334898 1.0001872 2.3509598e-38
-0.99181104 -0.10939668 1.0001881 2.3509598e-38
-0.99048245 -0.12722896 1.0001876 2.3509598e-38
-0.98893511 -0.15246648 1.0001873 2.3509598e-38
-0.99188638 -0.18604763 1.0001881 2.3509598e-38
-0.98930842 -0.21156134 1.0001874 2.3509598e-38
-0.99293405 -0.23043507 1.0001885 2.3509598e-38
-0.99010545 -0.24988425 1.0001876 2.3509598e-38
-0.99272764 -0.27091509 1.0001884 2.3509598e-38
-0.99212933 -0.29254711 1.0001882 2.3509598e-38
-0.99013025 -0.30741033 1.0001876 2.3509598e-38
-0.99187273 -0.32828769 1.0001881 2.3509598e-38
-0.99216437 -0.34822944 1.0001882 2.3509598e-38
-0.9896251 -0.36830816 1.0001875 2.3509598e-38
-0.99026322 -0.38953713 1.0001876 2.3509598e-38
-0.9890933 -0.41067287 1.0001874 2.3509598e-38
-0.98625541 -0.43216449 1.0001866 2.3509598e-38
-0.98920161 -0.44988823 1.0001874 2.3509598e-38
-0.98843163 -0.47071168 1.0001872 2.3509598e-38
-0.98777419 -0.48749828 1.0001869 2.3509598e-38
-0.99414676 -0.50750721 1.0001888 2.3509598e-38
-0.98884267 -0.53041571 1.0001873 2.3509598e-38
-0.98910254 -0.54954278 1.0001874 2.3509598e-38
-0.9882462 -0.57111818 1.0001872 2.3509598e-38
-0.98810679 -0.59029716 1.0001872 2.3509598e-38
-0.99209476 -0.61243063 1.0001882 2.3509598e-38
-0.99028569 -0.6453585 1.0001878 2.3509598e-38
-0.98669267 -0.6702795 1.0001867 2.3509598e-38
-0.9917441 -0.68787313 1.0001881 2.3509598e-38
-0.99518472 -0.7101934 1.0001892 2.3509598e-38
-0.99548405 -0.75096148 1.0001893 2.3509598e-38
-0.99127853 -0.78659338 1.0001881 2.3509598e-38
-0.9898411 -0.80903196 1.0001876 2.3509598e-38
-0.98780167 -0.82421327 1.000187 2.3509598e-38
-0.99051577 -0.85074353 1.0001879 2.3509598e-38
-0.99168462 -0.869196 1.0001881 2.3509598e-38
-0.99065793 -0.89009154 1.0001879 2.3509598e-38
-0.98732346 -0.91289908 1.0001869 2.3509598e-38
-0.98812258 -0.93213469 1.0001872 2.3509598e-38
-0.98931777 -0.94959921 1.0001874 2.3509598e-38
-0.99166358 -0.97337866 1.0001881 2.3509598e-38
-0.99450022 -0.9937225 1.0001889 2.3509598e-38
-0.97149754 -0.99026316 1.0001824 2.3509598e-38
-0.94926238 -0.98855692 1.000176 2.3509598e-38
-0.93031734 -0.98650599 1.0001707 2.3509598e-38
-0.90778506 -0.99115098 1.0001643 2.3509598e-38
-0.88993657 -0.99265146 1.000159 2.3509598e-38
-0.87002128 -0.98698997 1.0001534 2.3509598e-38
-0.85154122 -0.98836774 1.0001481 2.3509598e-38
-0.8276884 -0.9890039 1.0001414 2.3509598e-38
-0.80920416 -0.99013603 1.000136 2.3509598e-38
-0.78878957 -0.99019724 1.0001302 2.3509598e-38
-0.77142936 -0.99224937 1.0001252 2.3509598e-38
-0.75175285 -0.99149013 1.0001197 2.3509598e-38
-0.73032165 -0.98953819 1.0001135 2.3509598e-38
-0.7099793 -0.98717481 1.0001078 2.3509598e-38
-0.69125485 -0.98932439 1.0001023 2.3509598e-38
-0.66866761 -0.98797566 1.0000958 2.3509598e-38
-0.64702302 -0.98910922 1.0000896 2.3509598e-38
-0.60878336 -0.98937172 1.0000788 2.3509598e-38
-0.59301221 -0.9911111 1.0000743 2.3509598e-38
-0.57198191 -0.9902792 1.0000682 2.3509598e-38
-0.54971337 -0.98699206 1.000062 2.3509598e-38
-0.52981371 -0.9907999 1.0000563 2.3509598e-38
-0.49313608 -0.99139291 1.0000458 2.3509598e-38
-0.47248495 -0.99145615 1.0000398 2.3509598e-38
-0.4494935 -0.99254245 1.0000333 2.3509598e-38
-0.43014714 -0.9899869 1.0000278 2.3509598e-38
-0.4100593 -0.99049652 1.0000219 2.3509598e-38
-0.39117074 -0.98777366 1.0000167 2.3509598e-38
-0.37025121 -0.98960263 1.0000106 2.3509598e-38
-0.35292631 -0.99112833 1.0000057 2.3509598e-38
-0.33051062 -0.98961174 0.99999928 2.3509598e-38
-0.31250596 -0.99102604 0.99999416 2.3509598e-38
-0.28745756 -0.98867577 0.99998701 2.3509598e-38
-0.2704927 -0.99062079 0.99998212 2.3509598e-38
-0.25349033 -0.99143243 0.99997729 2.3509598e-38
-0.23096476 -0.98955381 0.99997085 2.3509598e-38
-0.18950905 -0.99161446 0.99995899 2.3509598e-38
-0.1493931 -0.98942733 0.99994755 2.3509598e-38
-0.12981682 -0.99069691 0.99994195 2.3509598e-38
-0.10813352 -0.98911232 0.99993575 2.3509598e-38
-0.089365438 -0.98917311 0.99993038 2.3509598e-38
-0.070486829 -0.99278504 0.99992502 2.3509598e-38
-0.02879034 -0.99140966 0.9999131 2.3509598e-38
-0.011834648 -0.99303317 0.99990827 2.3509598e-38
0.029720658 -0.98966897 0.99989641 2.3509598e-38
0.052613229 -0.99147731 0.99988985 2.3509598e-38
0.068898045 -0.99263608 0.9998852 2.3509598e-38
0.089753546 -0.99041462 0.99987924 2.3509598e-38
0.11148363 -0.98967451 0.99987304 2.3509598e-38
0.12945993 -0.99185324 0.99986792 2.3509598e-38
0.14983876 -0.9938364 0.99986207 2.3509598e-38
0.17033193 -0.99050707 0.99985623 2.3509598e-38
0.19200204 -0.98914963 0.99985003 2.3509598e-38
0.21188767 -0.9903264 0.99984431 2.3509598e-38
0.22842564 -0.99309283 0.99983966 2.3509598e-38
0.25092024 -0.9880811 0.99983323 2.3509598e-38
0.26993161 -0.9900313 0.99982774 2.3509598e-38
0.28974089 -0.9935829 0.99982214 2.3509598e-38
0.31081939 -0.99290848 0.99981606 2.3509598e-38
0.33258164 -0.98970157 0.99980986 2.3509598e-38
0.35031465 -0.98807347 0.99980485 2.3509598e-38
0.36845082 -0.9911226 0.99979961 2.3509598e-38
0.38952613 -0.99144238 0.99979365 2.3509598e-38
0.40890166 -0.99117005 0.99978805 2.3509598e-38
0.42788714 -0.9873631 0.99978268 2.3509598e-38
0.44982836 -0.98767048 0.99977636 2.3509598e-38
0.46776384 -0.9924109 0.99977124 2.3509598e-38
0.5090124 -0.99344867 0.99975944 2.3509598e-38
0.52847958 -0.98810476 0.99975395 2.3509598e-38
0.55204427 -0.98852408 0.99974716 2.3509598e-38
0.57138044 -0.98889524 0.99974167 2.3509598e-38
0.59179538 -0.99115288 0.99973583 2.3509598e-38
0.6298002 -0.99200529 0.99972498 2.3509598e-38
0.65148789 -0.99288678 0.99971879 2.3509598e-38
0.66957134 -0.98849595 0.99971354 2.3509598e-38
0.68996412 -0.98746026 0.99970782 2.3509598e-38
0.70649922 -0.99078667 0.99970305 2.3509598e-38
0.73156559 -0.99089235 0.9996959 2.3509598e-38
0.7515772 -0.99144948 0.99969018 2.3509598e-38
0.76906514 -0.99213558 0.99968517 2.3509598e-38
0.78725481 -0.98889148 0.99967992 2.3509598e-38
0.80935186 -0.99134111 0.99967372 2.3509598e-38
0.82973152 -0.99276829 0.99966788 2.3509598e-38
0.85016996 -0.99187243 0.99966204 2.3509598e-38
0.86754978 -0.99060678 0.99965703 2.3509598e-38
0.88932306 -0.98967034 0.99965084 2.3509598e-38
0.91001481 -0.99125081 0.99964488 2.3509598e-38
0.92816973 -0.99342066 0.99963975 2.3509598e-38
0.94852579 -0.99004662 0.99963391 2.3509598e-38
0.97362387 -0.99231392 0.99962676 2.3509598e-38
0.99081016 -0.98896253 0.99962187 2.3509598e-38
1.0000032 -0.98625213 0.99961919 2.3436058e-38
1.0000029 -0.97151136 0.99961919 2.3436058e-38
1.0000025 -0.94847095 0.99961919 2.3436058e-38
1.0000023 -0.93147445 0.99961919 2.3436058e-38
1.0000023 -0.91182917 0.99961919 2.3436058e-38
1.0000029 -0.89177144 0.99961919 2.3436058e-38
1.0000029 -0.8717351 0.99961919 2.3436058e-38
1.0000025 -0.85142273 0.99961919 2.3436058e-38
1.000003 -0.8291859 0.99961919 2.3436058e-38
1.0000029 -0.8103165 0.99961919 2.3436058e-38
1.0000026 -0.78892428 0.99961919 2.3436058e-38
1.0000033 -0.77085769 0.99961919 2.3436058e-38
1.0000023 -0.75068241 0.99961919 2.3436058e-38
1.000003 -0.73173583 0.99961919 2.3436058e-38
1.000002 -0.70839435 0.99961919 2.3436058e-38
1.0000037 -0.68832457 0.99961919 2.3436058e-38
1.000002 -0.67108029 0.99961919 2.3436058e-38
1.0000035 -0.65420192 0.99961919 2.3436058e-38
1.0000031 -0.63349545 0.99961919 2.3436058e-38
1.0000026 -0.60931057 0.99961913 2.3436058e-38
1.0000018 -0.59239447 0.99961913 2.3436058e-38
1.000003 -0.56951857 0.99961913 2.3436058e-38
1.0000021 -0.54904974 0.99961913 2.3436058e-38
1.0000033 -0.52843946 0.99961913 2.3436058e-38
1.0000024 -0.51231313 0.99961913 2.3436058e-38
1.0000029 -0.48874372 0.99961913 2.3436058e-38
1.0000023 -0.47029227 0.99961913 2.3436058e-38
1.0000023 -0.44871044 0.99961913 2.3436058e-38
1.0000029 -0.42981371 0.99961913 2.3436058e-38
1.0000037 -0.40756816 0.99961913 2.3436058e-38
1.0000033 -0.39064902 0.99961913 2.3436058e-38
1.0000026 -0.36743349 0.99961913 2.3436058e-38
1.0000036 -0.35209808 0.99961913 2.3436058e-38
1.0000025 -0.32859507 0.99961913 2.3436058e-38
1.0000025 -0.31002277 0.99961913 2.3436058e-38
1.000003 -0.28982311 0.99961913 2.3436058e-38
1.0000017 -0.26757783 0.99961913 2.3436058e-38
1.0000029 -0.25187331 0.99961913 2.3436058e-38
1.0000033 -0.22667471 0.99961913 2.3436058e-38
1.0000027 -0.20757155 0.99961913 2.3436058e-38
1.0000026 -0.19243889 0.99961907 2.3436058e-38
1.0000023 -0.16841538 0.99961907 2.3436058e-38
1.0000024 -0.15293616 0.99961907 2.3436058e-38
1.0000021 -0.13167076 0.99961907 2.3436058e-38
1.0000023 -0.11095073 0.99961907 2.3436058e-38
1.0000035 -0.088269509 0.99961907 2.3436058e-38
1.0000018 -0.071886137 0.99961907 2.3436058e-38
1.0000029 -0.049851287 0.99961907 2.3436058e-38
1.0000033 -0.031339467 0.99961907 2.3436058e-38
1.0000035 -0.012328941 0.99961907 2.3436058e-38
1.0000029 0.012290956 0.99961907 2.3436058e-38
1.0000017 0.029233154 0.99961907 2.3436058e-38
1.0000025 0.048622705 0.99961907 2.3436058e-38
1.0000024 0.071279563 0.99961907 2.3436058e-38
1.0000024 0.090739131 0.99961907 2.3436058e-38
1.0000032 0.10875421 0.99961907 2.3436058e-38
1.0000025 0.13155675 0.99961907 2.3436058e-38
1.0000026 0.15208682 0.99961907 2.3436058e-38
1.0000023 0.16994587 0.99961907 2.3436058e-38
1.0000031 0.19131111 0.99961907 2.3436058e-38
1.000002 0.21176116 0.99961901 2.3436058e-38
1.0000026 0.2294337 0.99961901 2.3436058e-38
1.0000024 0.25051188 0.99961901 2.3436058e-38
1.0000019 0.26616853 0.99961901 2.3436058e-38
1.0000036 0.2909897 0.99961901 2.3436058e-38
1.0000024 0.31184101 0.99961901 2.3436058e-38
1.0000033 0.32888508 0.99961901 2.3436058e-38
1.0000026 0.34987205 0.99961901 2.3436058e-38
1.0000033 0.37073657 0.99961901 2.3436058e-38
1.0000027 0.39183578 0.99961901 2.3436058e-38
1.0000033 0.41200793 0.99961901 2.3436058e-38
1.0000033 0.43143287 0.99961901 2.3436058e-38
1.0000031 0.44895971 0.99961901 2.3436058e-38
1.0000027 0.47053972 0.99961901 2.3436058e-38
1.000002 0.49039078 0.99961901 2.3436058e-38
1.0000021 0.50923741 0.99961901 2.3436058e-38
1.0000037 0.53391725 0.99961901 2.3436058e-38
1.0000031 0.55329496 0.99961901 2.3436058e-38
1.000003 0.57358497 0.99961901 2.3436058e-38
1.0000029 0.59134382 0.99961901 2.3436058e-38
1.0000025 0.60896736 0.99961901 2.3436058e-38
1.0000024 0.63042575 0.99961895 2.3436058e-38
1.0000021 0.65094554 0.99961895 2.3436058e-38
1.0000024 0.66912913 0.99961895 2.3436058e-38
1.0000029 0.68737143 0.99961895 2.3436058e-38
1.000003 0.7112959 0.99961895 2.3436058e-38
1.0000027 0.73130435 0.99961895 2.3436058e-38
1.0000026 0.75152218 0.99961895 2.3436058e-38
1.0000036 0.76887435 0.99961895 2.3436058e-38
1.0000032 0.78736854 0.99961895 2.3436058e-38
1.0000036 0.80951792 0.99961895 2.3436058e-38
1.0000024 0.83157527 0.99961895 2.3436058e-38
1.0000018 0.85074633 0.99961895 2.3436058e-38
1.0000027 0.87016279 0.99961895 2.3436058e-38
1.0000029 0.89353222 0.99961895 2.3436058e-38
1.0000024 0.9125402 0.99961895 2.3436058e-38
1.0000027 0.93041861 0.99961895 2.3436058e-38
1.0000031 0.95321035 0.99961895 2.3436058e-38
1.0000019 0.97010756 0.99961895 2.3436058e-38
1.0000027 0.9872182 0.99961895 2.3436058e-38
0.99069548 0.99195814 0.99962163 2.3509598e-38
0.97290409 0.98704797 0.99962676 2.3509598e-38
0.95009208 0.98848599 0.99963319 2.3509598e-38
0.91179115 0.99147177 0.99964416 2.3509598e-38
0.89055985 0.98984635 0.99965024 2.3509598e-38
0.86846477 0.99070263 0.99965656 2.3509598e-38
0.8505649 0.99077374 0.99966168 2.3509598e-38
0.82873482 0.98800492 0.99966788 2.3509598e-38
0.81071854 0.98935544 0.99967301 2.3509598e-38
0.79085034 0.98887271 0.99967873 2.3509598e-38
0.77028543 0.98725009 0.99968457 2.3509598e-38
0.748101 0.98826164 0.99969089 2.3509598e-38
0.73332578 0.99420142 0.99969518 2.3509598e-38
0.71294093 0.98809385 0.99970102 2.3509598e-38
0.68836462 0.98593205 0.99970794 2.3509598e-38
0.66908526 0.98607981 0.99971354 2.3509598e-38
0.64984345 0.98962539 0.99971902 2.3509598e-38
0.62817377 0.99258316 0.99972522 2.3509598e-38
0.61038405 0.98920345 0.99973023 2.3509598e-38
0.58929116 0.99028933 0.99973631 2.3509598e-38
0.56831497 0.99265665 0.99974227 2.3509598e-38
0.52804655 0.99766421 0.99975383 2.3509598e-38
0.51236612 0.99233705 0.99975824 2.3509598e-38
0.48737019 0.99116278 0.9997654 2.3509598e-38
0.46809262 0.98816484 0.99977088 2.3509598e-38
0.44531316 0.9938091 0.99977744 2.3509598e-38
0.43326038 0.99293661 0.99978089 2.3509598e-38
0.41017917 0.98927808 0.99978745 2.3509598e-38
0.39209229 0.98816228 0.99979258 2.3509598e-38
0.37174085 0.9894222 0.99979842 2.3509598e-38
0.34822077 0.99110848 0.99980521 2.3509598e-38
0.33164331 0.98888296 0.99980986 2.3509598e-38
0.31054476 0.98958385 0.99981594 2.3509598e-38
0.27251786 0.99115151 0.99982679 2.3509598e-38
0.24984148 0.99062198 0.99983323 2.3509598e-38
0.23064928 0.9891364 0.99983871 2.3509598e-38
0.20619321 0.99156302 0.99984574 2.3509598e-38
0.16957432 0.991759 0.99985623 2.3509598e-38
0.14968206 0.99366021 0.99986184 2.3509598e-38
0.12858471 0.99196798 0.99986792 2.3509598e-38
0.089914598 0.99193674 0.999879 2.3509598e-38
0.069743894 0.98915213 0.99988472 2.3509598e-38
0.049060166 0.98843026 0.99989057 2.3509598e-38
0.03144823 0.98979217 0.99989569 2.3509598e-38
0.010864945 0.98922706 0.99990153 2.3509598e-38
-0.0086433142 0.98738927 0.99990708 2.3509598e-38
-0.033508539 0.98782265 0.99991423 2.3509598e-38
-0.051080558 0.99211138 0.99991924 2.3509598e-38
-0.071722828 0.98865563 0.99992514 2.3509598e-38
-0.091760427 0.98981464 0.99993086 2.3509598e-38
-0.10715081 0.98700327 0.99993527 2.3509598e-38
-0.13167417 0.98839229 0.99994224 2.3509598e-38
-0.14811398 0.99045515 0.99994695 2.3509598e-38
-0.16994585 0.99123704 0.99995315 2.3509598e-38
-0.19069679 0.98921072 0.99995911 2.3509598e-38
-0.21009319 0.99224341 0.99996465 2.3509598e-38
-0.22932245 0.99226588 0.99997014 2.3509598e-38
-0.24912487 0.98796827 0.9999758 2.3509598e-38
-0.27021053 0.98906505 0.99998182 2.3509598e-38
-0.29028136 0.99163294 0.99998754 2.3509598e-38
-0.30894846 0.99023098 0.99999291 2.3509598e-38
-0.32788363 0.98984772 0.99999827 2.3509598e-38
-0.35251564 0.98907453 1.0000052 2.3509598e-38
-0.37233219 0.99038374 1.000011 2.3509598e-38
-0.39113322 0.99027145 1.0000165 2.3509598e-38
-0.41180831 0.98822182 1.0000223 2.3509598e-38
-0.43050241 0.99124968 1.0000277 2.3509598e-38
-0.44972187 0.99101162 1.0000331 2.3509598e-38
-0.46825975 0.99154794 1.0000384 2.3509598e-38
-0.49212259 0.99271286 1.0000453 2.3509598e-38
-0.51050961 0.98851335 1.0000505 2.3509598e-38
-0.5311811 0.99213058 1.0000564 2.3509598e-38
-0.54724115 0.99120724 1.000061 2.3509598e-38
-0.5711351 0.99263191 1.0000677 2.3509598e-38
-0.60860783 0.99223471 1.0000784 2.3509598e-38
-0.63176519 0.98962623 1.0000851 2.3509598e-38
-0.64981788 0.98874027 1.0000902 2.3509598e-38
-0.66934383 0.98780358 1.0000958 2.3509598e-38
-0.69032466 0.99053407 1.0001018 2.3509598e-38
-0.70911062 0.98951709 1.0001073 2.3509598e-38
-0.7299456 0.99198198 1.0001131 2.3509598e-38
-0.7682029 0.99374408 1.0001241 2.3509598e-38
-0.78999633 0.99310744 1.0001303 2.3509598e-38
-0.80852038 0.99079001 1.0001357 2.3509598e-38
-0.82937652 0.99189425 1.0001416 2.3509598e-38
1 0.98701394 -0.046856534 2.3436058e-38
1 0.99005455 -0.029980581 2.3436058e-38
1 0.98966599 -0.0075759492 2.3436058e-38
1 0.98993295 0.009396553 2.3436058e-38
1 0.99119592 0.033300959 2.3436058e-38
1 0.98856086 0.051404819 2.3436058e-38
1 0.99128425 0.070013762 2.3436058e-38
1 0.98920041 0.090543747 2.3436058e-38
1 0.98979729 0.12661485 2.3436058e-38
1 0.98785686 0.15041468 2.3436058e-38
1 0.99368137 0.16759896 2.3436058e-38
1 0.98958045 0.18973584 2.3436058e-38
1 0.98939961 0.20975161 2.3436058e-38
1 0.99044114 0.23244423 2.3436058e-38
1 0.99226803 0.25000587 2.3436058e-38
1 0.9888705 0.26907411 2.3436058e-38
1 0.99170965 0.29295167 2.3436058e-38
1 0.98756981 0.30862111 2.3436058e-38
1 0.99030161 0.3305212 2.3436058e-38
1 0.9909603 0.35081062 2.3436058e-38
1 0.99005771 0.38736364 2.3436058e-38
1 0.99053013 0.40619648 2.3436058e-38
1 0.99163771 0.43070313 2.3436058e-38
1 0.98899049 0.44767419 2.3436058e-38
1 0.98866683 0.47079691 2.3436058e-38
1 0.98997092 0.48715705 2.3436058e-38
1 0.98961651 0.50877452 2.3436058e-38
1 0.99032277 0.53137034 2.3436058e-38
1 0.99224359 0.5518164 2.3436058e-38
1 0.99011922 0.57271421 2.3436058e-38
1 0.99350739 0.58982688 2.3436058e-38
1 0.98869878 0.60970902 2.3436058e-38
1 0.99078655 0.62956715 2.3436058e-38
1 0.99177277 0.64848804 2.3436058e-38
1 0.98884517 0.67058045 2.3436058e-38
1 0.99044108 0.69239402 2.3436058e-38
1 0.99054348 0.70992261 2.3436058e-38
1 0.98833466 0.73408383 2.3436058e-38
1 0.98891205 0.75075597 2.3436058e-38
1 0.98846263 0.77051324 2.3436058e-38
1 0.99157476 0.78780228 2.3436058e-38
1 0.98875475 0.81348848 2.3436058e-38
1 0.9889524 0.8303256 2.3436058e-38
1 0.9917205 0.84772617 2.3436058e-38
1 0.98882842 0.87367892 2.3436058e-38
1 0.98907471 0.89121956 2.3436058e-38
1 0.98937893 0.90933156 2.3436058e-38
1 0.99245495 0.9317053 2.3436058e-38
1 0.99388409 0.94992906 2.3436058e-38
1 0.98772973 0.96639889 2.3436058e-38
1 0.9668442 0.9700247 2.3436058e-38
1 0.95141119 0.97286385 2.3436058e-38
1 0.9339093 0.96858597 2.3436058e-38
1 0.90784252 0.96997958 2.3436058e-38
1 0.89020461 0.96675158 2.3436058e-38
1 0.86963284 0.9697662 2.3436058e-38
1 0.85214561 0.96931344 2.3436058e-38
1 0.82885045 0.96947271 2.3436058e-38
1 0.80834717 0.96835959 2.3436058e-38
1 0.78453773 0.97420007 2.3436058e-38
1 0.74955434 0.96825236 2.3436058e-38
1 0.73198187 0.96750814 2.3436058e-38
1 0.70665067 0.97042096 2.3436058e-38
1 0.68975198 0.96838379 2.3436058e-38
1 0.67174655 0.9715324 2.3436058e-38
1 0.65107548 0.97140735 2.3436058e-38
1 0.62832046 0.97042471 2.3436058e-38
1 0.60950124 0.96941304 2.3436058e-38
1 0.58828652 0.96850508 2.3436058e-38
1 0.56968814 0.9718101 2.3436058e-38
1 0.55407047 0.97277248 2.3436058e-38
1 0.51161623 0.97202748 2.3436058e-38
1 0.48960361 0.97108364 2.3436058e-38
1 0.46909136 0.96993542 2.3436058e-38
1 0.44973847 0.96978229 2.3436058e-38
1 0.43255645 0.968898 2.3436058e-38
1 0.40955091 0.97191453 2.3436058e-38
1 0.38979873 0.9685601 2.3436058e-38
1 0.36990955 0.97268933 2.3436058e-38
1 0.32711351 0.96871907 2.3436058e-38
1 0.31044111 0.97074127 2.3436058e-38
1 0.28508481 0.97011882 2.3436058e-38
1 0.26925251 0.96904451 2.3436058e-38
1 0.23322897 0.97478122 2.3436058e-38
1 0.21100187 0.97033036 2.3436058e-38
1 0.18879005 0.97011346 2.3436058e-38
1 0.17087893 0.96977282 2.3436058e-38
1 0.15008619 0.96828187 2.3436058e-38
1 0.13126755 0.9696998 2.3436058e-38
1 0.10697068 0.96873313 2.3436058e-38
1 0.089215554 0.96840549 2.3436058e-38
1 0.070994139 0.96761525 2.3436058e-38
1 0.049526002 0.9713195 2.3436058e-38
1 0.030769166 0.96971238 2.3436058e-38
1 0.0094424887 0.96832764 2.3436058e-38
1 -0.011057157 0.9678266 2.3436058e-38
1 -0.028989317 0.96618307 2.3436058e-38
1 -0.050863095 0.96673936 2.3436058e-38
1 -0.068132401 0.96970642 2.3436058e-38
1 -0.08395645 0.97197759 2.3436058e-38
1 -0.10830975 0.97285938 2.3436058e-38
1 -0.13085058 0.96985185 2.3436058e-38
1 -0.14679722 0.97042954 2.3436058e-38
1 -0.17093073 0.96747649 2.3436058e-38
1 -0.18753892 0.97102129 2.3436058e-38
1 -0.20739575 0.97092485 2.3436058e-38
1 -0.22882046 0.97027409 2.3436058e-38
1 -0.25143093 0.96973366 2.3436058e-38
1 -0.27223188 0.96942753 2.3436058e-38
1 -0.28911045 0.96843845 2.3436058e-38
1 -0.30952653 0.9740566 2.3436058e-38
1 -0.32872444 0.97035521 2.3436058e-38
1 -0.34702921 0.97324389 2.3436058e-38
1 -0.38956845 0.97479153 2.3436058e-38
1 -0.40786648 0.97131997 2.3436058e-38
1 -0.42613587 0.96954221 2.3436058e-38
1 -0.44974399 0.97001237 2.3436058e-38
1 -0.4668251 0.97243214 2.3436058e-38
1 -0.48882118 0.97135866 2.3436058e-38
1 -0.51084667 0.96766305 2.3436058e-38
1 -0.53137624 0.9732151 2.3436058e-38
1 -0.54981589 0.97174084 2.3436058e-38
1 -0.57301247 0.97136962 2.3436058e-38
1 -0.5929606 0.97008401 2.3436058e-38
1 -0.61005807 0.97062969 2.3436058e-38
1 -0.62788963 0.97006345 2.3436058e-38
1 -0.65164763 0.96812308 2.3436058e-38
1 -0.6721915 0.97158945 2.3436058e-38
1 -0.68742973 0.96985149 2.3436058e-38
1 -0.71046019 0.97133988 2.3436058e-38
1 -0.73004007 0.96762168 2.3436058e-38
1 -0.75076401 0.96914291 2.3436058e-38
1 -0.76913881 0.96943253 2.3436058e-38
1 -0.79352778 0.96741372 2.3436058e-38
1 -0.830428 0.97022951 2.3436058e-38
1 -0.8506543 0.97055662 2.3436058e-38
1 -0.86849535 0.96764463 2.3436058e-38
1 -0.88968158 0.96980625 2.3436058e-38
1 -0.9077962 0.96957093 2.3436058e-38
1 -0.93159807 0.972027 2.3436058e-38
1 -0.96691251 0.96892118 2.3436058e-38
1 -0.9879185 0.96919984 2.3436058e-38
1 -0.9870519 0.95169544 2.3436058e-38
1 -0.98747343 0.9312982 2.3436058e-38
1 -0.98905981 0.90977597 2.3436058e-38
1 -0.99124908 0.88822609 2.3436058e-38
1 -0.99220228 0.87410009 2.3436058e-38
1 -0.99100429 0.84766549 2.3436058e-38
1 -0.99082261 0.82977682 2.3436058e-38
1 -0.99151909 0.81025505 2.3436058e-38
1 -0.99119401 0.76955265 2.3436058e-38
1 -0.98787123 0.75035363 2.3436058e-38
1 -0.98603231 0.72775769 2.3436058e-38
1 -0.98819494 0.71116507 2.3436058e-38
1 -0.99129426 0.69239682 2.3436058e-38
1 -0.98924172 0.67215061 2.3436058e-38
1 -0.98999566 0.65054142 2.3436058e-38
1 -0.98859465 0.63140166 2.3436058e-38
1 -0.98851544 0.61176318 2.3436058e-38
1 -0.99009907 0.59109938 2.3436058e-38
1 -0.99248964 0.56930584 2.3436058e-38
1 -0.989631 0.53250039 2.3436058e-38
1 -0.9912312 0.51185787 2.3436058e-38
1 -0.99031192 0.49226931 2.3436058e-38
1 -0.99059469 0.46703357 2.3436058e-38
1 -0.99395907 0.44866964 2.3436058e-38
1 -0.99376673 0.41165915 2.3436058e-38
1 -0.98988938 0.39551368 2.3436058e-38
1 -0.9918524 0.36910897 2.3436058e-38
1 -0.99093699 0.34875274 2.3436058e-38
1 -0.98956525 0.3285315 2.3436058e-38
1 -0.99240202 0.31091413 2.3436058e-38
1 -0.99019152 0.28426084 2.3436058e-38
1 -0.99228144 0.27014941 2.3436058e-38
1 -0.98984325 0.24699926 2.3436058e-38
1 -0.98738587 0.22942264 2.3436058e-38
1 -0.99061221 0.21190318 2.3436058e-38
1 -0.99354112 0.18889162 2.3436058e-38
1 -0.989564 0.16995554 2.3436058e-38
1 -0.98937625 0.15124893 2.3436058e-38
1 -0.98657864 0.12753086 2.3436058e-38
1 -0.99026245 0.10922919 2.3436058e-38
1 -0.99045622 0.088719845 2.3436058e-38
1 -0.9877243 0.074886084 2.3436058e-38
1 -0.98953426 0.050563894 2.3436058e-38
1 -0.98975754 0.031484567 2.3436058e-38
1 -0.99179125 0.0093061132 2.3436058e-38
1 -0.98731393 -0.0089315893 2.3436058e-38
1 -0.99049079 -0.03130535 2.3436058e-38
1 -0.99062061 -0.049528643 2.3436058e-38
1 -0.9933511 -0.066757202 2.3436058e-38
1 -0.99113989 -0.092238113 2.3436058e-38
1 -0.99243611 -0.1140252 2.3436058e-38
1 -0.99047422 -0.14664611 2.3436058e-38
1 -0.9904027 -0.17048524 2.3436058e-38
1 -0.99090737 -0.19164376 2.3436058e-38
1 -0.99025726 -0.20948577 2.3436058e-38
1 -0.9902274 -0.23295572 2.3436058e-38
1 -0.99198079 -0.24839117 2.3436058e-38
1 -0.98874128 -0.27092066 2.3436058e-38
1 -0.993231 -0.29078454 2.3436058e-38
1 -0.98938483 -0.31165388 2.3436058e-38
1 -0.9876458 -0.33051935 2.3436058e-38
1 -0.99087781 -0.35005909 2.3436058e-38
1 -0.99312466 -0.37091628 2.3436058e-38
1 -0.98837793 -0.38910881 2.3436058e-38
1 -0.989838 -0.40953392 2.3436058e-38
1 -0.98989922 -0.42933321 2.3436058e-38
1 -0.98941773 -0.44967026 2.3436058e-38
1 -0.98945034 -0.46965855 2.3436058e-38
1 -0.98958844 -0.48627815 2.3436058e-38
1 -0.9894492 -0.51015741 2.3436058e-38
1 -0.99180526 -0.53549838 2.3436058e-38
1 -0.98939687 -0.55254841 2.3436058e-38
1 -0.99040955 -0.56858921 2.3436058e-38
1 -0.99003869 -0.59018093 2.3436058e-38
1 -0.9904052 -0.6092242 2.3436058e-38
1 -0.98990971 -0.62931824 2.3436058e-38
1 -0.98917282 -0.64998496 2.3436058e-38
1 -0.98985034 -0.66682112 2.3436058e-38
1 -0.99002618 -0.68724114 2.3436058e-38
1 -0.99126393 -0.71192527 2.3436058e-38
1 -0.99294382 -0.74875462 2.3436058e-38
1 -0.99197823 -0.79484749 2.3436058e-38
1 -0.98986423 -0.80852449 2.3436058e-38
1 -0.99012065 -0.82814252 2.3436058e-38
1 -0.9900794 -0.85260385 2.3436058e-38
1 -0.99097407 -0.8696003 2.3436058e-38
1 -0.98832506 -0.89173394 2.3436058e-38
1 -0.98665029 -0.90609211 2.3436058e-38
1 -0.99090165 -0.92997015 2.3436058e-38
1 -0.98759717 -0.95103437 2.3436058e-38
1 -0.99166662 -0.96890682 2.3436058e-38
1 -0.99230474 -0.98900312 2.3436058e-38
1 -0.96985883 -0.98777121 2.3436058e-38
1 -0.95230693 -0.98607433 2.3436058e-38
1 -0.92882204 -0.98932409 2.3436058e-38
1 -0.90996236 -0.99243706 2.3436058e-38
1 -0.89192361 -0.99191719 2.3436058e-38
1 -0.87140405 -0.98969424 2.3436058e-38
1 -0.85071653 -0.9917739 2.3436058e-38
1 -0.82869923 -0.98929858 2.3436058e-38
1 -0.81044829 -0.99039459 2.3436058e-38
1 -0.79016626 -0.98956323 2.3436058e-38
1 -0.7701959 -0.99320483 2.3436058e-38
1 -0.74989855 -0.99016422 2.3436058e-38
1 -0.72964716 -0.99250054 2.3436058e-38
1 -0.7057879 -0.98874247 2.3436058e-38
1 -0.68876505 -0.98873425 2.3436058e-38
1 -0.66874433 -0.9887985 2.3436058e-38
1 -0.65126467 -0.99315244 2.3436058e-38
1 -0.63245171 -0.98963165 2.3436058e-38
1 -0.60920274 -0.98931837 2.3436058e-38
1 -0.59217668 -0.99184847 2.3436058e-38
1 -0.56847066 -0.99237156 2.3436058e-38
1 -0.52775711 -0.99257231 2.3436058e-38
1 -0.50743306 -0.98857045 2.3436058e-38
1 -0.48794949 -0.9872672 2.3436058e-38
1 -0.47189355 -0.9912805 2.3436058e-38
1 -0.44919083 -0.98981243 2.3436058e-38
1 -0.43079025 -0.99105281 2.3436058e-38
1 -0.40827313 -0.98793918 2.3436058e-38
1 -0.38964358 -0.989384 2.3436058e-38
1 -0.37189323 -0.99064302 2.3436058e-38
1 -0.34730425 -0.99349278 2.3436058e-38
1 -0.32950601 -0.98991507 2.3436058e-38
1 -0.31375504 -0.99152941 2.3436058e-38
1 -0.29019761 -0.9920001 2.3436058e-38
1 -0.27075812 -0.99068946 2.3436058e-38
1 -0.25004157 -0.99245441 2.3436058e-38
1 -0.23337021 -0.98803329 2.3436058e-38
1 -0.21308227 -0.98836404 2.3436058e-38
1 -0.18659085 -0.98945838 2.3436058e-38
1 -0.17171553 -0.9891578 2.3436058e-38
1 -0.14916283 -0.98965055 2.3436058e-38
1 -0.13085906 -0.98941088 2.3436058e-38
1 -0.10617619 -0.98708123 2.3436058e-38
1 -0.089708447 -0.98688889 2.3436058e-38
1 -0.07133089 -0.99058312 2.3436058e-38
1 -0.048860941 -0.99156588 2.3436058e-38
1 -0.033180803 -0.98876965 2.3436058e-38
1 -0.012237761 -0.98962677 2.3436058e-38
1 0.010479768 -0.99135143 2.3436058e-38
1 0.028626284 -0.99043137 2.3436058e-38
1 0.051032662 -0.99092788 2.3436058e-38
1 0.069644727 -0.98948133 2.3436058e-38
1 0.089730226 -0.98873228 2.3436058e-38
1 0.10675968 -0.9897328 2.3436058e-38
1 0.1311298 -0.9892 2.3436058e-38
1 0.15068141 -0.99138302 2.3436058e-38
1 0.17085451 -0.99121457 2.3436058e-38
1 0.19242568 -0.99109215 2.3436058e-38
1 0.21127255 -0.99068481 2.3436058e-38
1 0.22971551 -0.99082077 2.3436058e-38
1 0.25139102 -0.99051028 2.3436058e-38
1 0.27281123 -0.98834789 2.3436058e-38
1 0.28926706 -0.9898243 2.3436058e-38
1 0.31125718 -0.98773766 2.3436058e-38
1 0.32892248 -0.98902225 2.3436058e-38
1 0.34955984 -0.991391 2.3436058e-38
1 0.37180555 -0.98708087 2.3436058e-38
1 0.38983628 -0.98800242 2.3436058e-38
1 0.41196245 -0.98765248 2.3436058e-38
1 0.4276334 -0.98780215 2.3436058e-38
1 0.44971427 -0.99725705 2.3436058e-38
1 0.48986003 -0.99103874 2.3436058e-38
1 0.50969106 -0.99005073 2.3436058e-38
1 0.53017932 -0.98673332 2.3436058e-38
1 0.55258733 -0.98585117 2.3436058e-38
1 0.57138222 -0.98958933 2.3436058e-38
1 0.58969676 -0.9894706 2.3436058e-38
1 0.60812902 -0.99151134 2.3436058e-38
1 0.62953556 -0.98861861 2.3436058e-38
1 0.65264636 -0.98782623 2.3436058e-38
1 0.6679005 -0.99039578 2.3436058e-38
1 0.68811864 -0.99156296 2.3436058e-38
1 0.7094996 -0.98896873 2.3436058e-38
1 0.73071623 -0.99191904 2.3436058e-38
1 0.74859732 -0.99268007 2.3436058e-38
1 0.7697348 -0.99066645 2.3436058e-38
1 0.78746152 -0.98667526 2.3436058e-38
1 0.81353104 -0.99032402 2.3436058e-38
1 0.82985353 -0.98847449 2.3436058e-38
1 0.85119957 -0.99218929 2.3436058e-38
1 0.86882329 -0.98781472 2.3436058e-38
1 0.89002073 -0.99080491 2.3436058e-38
1 0.92890394 -0.99055058 2.3436058e-38
1 0.9485727 -0.99162364 2.3436058e-38
1 0.96989691 -0.99126601 2.3436058e-38
1 0.99243575 -0.98830569 2.3436058e-38
1 0.99170119 -0.97003806 2.3436058e-38
1 0.99008131 -0.94886416 2.3436058e-38
1 0.99242765 -0.9306863 2.3436058e-38
1 0.99008155 -0.91058278 2.3436058e-38
1 0.98944497 -0.89012051 2.3436058e-38
1 0.99285281 -0.8699683 2.3436058e-38
1 0.99036658 -0.85052699 2.3436058e-38
1 0.98970234 -0.82913524 2.3436058e-38
1 0.99059635 -0.81118405 2.3436058e-38
1 0.99427259 -0.79045677 2.3436058e-38
1 0.99146962 -0.76749218 2.3436058e-38
1 0.98965567 -0.74847448 2.3436058e-38
1 0.99097192 -0.72993338 2.3436058e-38
1 0.99001092 -0.70654517 2.3436058e-38
1 0.99124688 -0.69043559 2.3436058e-38
1 0.99234349 -0.65251982 2.3436058e-38
1 0.99198997 -0.63135427 2.3436058e-38
1 0.99052489 -0.60778689 2.3436058e-38
1 0.98866546 -0.58685666 2.3436058e-38
1 0.99107188 -0.57037413 2.3436058e-38
1 0.99146724 -0.54763633 2.3436058e-38
1 0.9901222 -0.52927977 2.3436058e-38
1 0.98817521 -0.5093959 2.3436058e-38
1 0.99267387 -0.4929955 2.3436058e-38
1 0.99077666 -0.4685511 2.3436058e-38
1 0.99166667 -0.44918865 2.3436058e-38
1 0.98996866 -0.42985824 2.3436058e-38
1 0.99230242 -0.40890005 2.3436058e-38
1 0.98844641 -0.39236027 2.3436058e-38
1 0.98934746 -0.3676309 2.3436058e-38
1 0.98966873 -0.34909683 2.3436058e-38
1 0.99132735 -0.32811666 2.3436058e-38
1 0.99179482 -0.31133938 2.3436058e-38
1 0.99195647 -0.29277354 2.3436058e-38
1 0.99276531 -0.26563424 2.3436058e-38
1 0.9886412 -0.22776587 2.3436058e-38
1 0.98813862 -0.20692711 2.3436058e-38
1 0.98918581 -0.18927805 2.3436058e-38
1 0.9858638 -0.17057288 2.3436058e-38
1 0.98644596 -0.15129793 2.3436058e-38
1 0.98828608 -0.13180506 2.3436058e-38
1 0.98936605 -0.11144146 2.3436058e-38
1 0.98707706 -0.089607671 2.3436058e-38
1 0.98839432 -0.069276191 2.3436058e-38
