# .PCD v0.7 - Point Cloud Data file format
VERSION 0.7
FIELDS x y z
SIZE 4 4 4
TYPE F F F
COUNT 1 1 1
WIDTH 1959
HEIGHT 1
VIEWPOINT 0 0 0 1 0 0 0
POINTS 1959
DATA ascii
1 -0.7312997 0.52804404
1 -0.71126676 0.53202516
1 -0.69302714 0.5316233
1 -0.6720354 0.53161192
1 -0.65040213 0.52970666
1 -0.63180202 0.53013587
1 -0.60912937 0.52886426
1 -0.58754694 0.53161931
1 -0.56869727 0.52957648
1 -0.54913515 0.53422105
1 -0.52696991 0.52689862
1 -0.51301968 0.52887553
1 -0.48951861 0.53150076
1 -0.47011882 0.53037494
1 -0.45195267 0.52874166
1 -0.43091658 0.52960062
1 -0.41025484 0.53451008
1 -0.38692403 0.5321281
1 -0.36843473 0.52827209
1 -0.35029989 0.52950364
1 -0.33258197 0.52977437
1 -0.30855861 0.53169721
1 -0.28931123 0.53006071
1 -0.2658298 0.53035301
1 -0.25064811 0.52799493
1 -0.22858587 0.52728504
1 -0.21055824 0.53036088
1 -0.18943681 0.52695799
1 -0.1721126 0.53117239
1 -0.14955467 0.53129238
1 -0.12740088 0.53318155
1 -0.11148262 0.53162509
1 -0.090287618 0.53320742
1 -0.070943564 0.53028828
1 -0.050668105 0.52571565
1 -0.024705809 0.53088593
1 -0.0087025026 0.52863288
1 0.013649046 0.53022301
1 0.027431726 0.52945107
1 0.051808223 0.52934313
1 0.070381247 0.52871525
1 0.090474129 0.5324586
1 0.11357969 0.52866864
1 0.12802589 0.52745581
1 0.14982669 0.5302273
1 0.16892426 0.52872896
1 0.18964782 0.53072995
1 0.20914404 0.53036356
1 0.23108785 0.53027737
1 0.25204977 0.52959871
1 0.27274969 0.52843565
1 0.2893711 0.53084862
1 0.3103129 0.533647
1 0.33066142 0.52870262
1 0.34799355 0.53155404
1 0.3717334 0.53093958
1 0.39110294 0.52983081
1 0.41266337 0.52915221
1 0.43456987 0.52629077
1 0.45111945 0.5331316
1 0.47066641 0.5294075
1 0.4857406 0.53088725
1 0.50844502 0.53071296
1 0.53121674 0.52984142
1 0.54943442 0.53019398
1 0.57140267 0.52990294
1 0.58842677 0.53067613
1 0.61066163 0.52966565
1 0.63112468 0.52937949
1 0.65641856 0.52714789
1 0.66935462 0.53303951
1 0.68958735 0.52859533
1 0.71047592 0.52949369
1 0.72974193 0.52653939
1 0.7487123 0.53310835
1 0.76935428 0.5285666
1 0.79151344 0.52883828
1 0.81298786 0.53118563
1 0.82936329 0.530671
1 0.84623468 0.5291934
1 0.86963737 0.52942753
1 0.88981253 0.53111911
1 0.91071731 0.5319975
1 0.93032682 0.52975553
1 0.94805002 0.52989709
1 0.96996427 0.52930582
1 0.98778838 0.53218853
1 -0.9919579 0.54970831
1 -0.96938896 0.54766303
1 -0.95160663 0.54696971
1 -0.93073738 0.54839045
1 -0.91200805 0.5506987
1 -0.89220518 0.54643828
1 -0.87144381 0.5486778
1 -0.85112518 0.55122733
1 -0.8305108 0.55216146
1 -0.81168687 0.55468285
1 -0.78905523 0.54947764
1 -0.77205205 0.54929459
1 -0.7509923 0.55142283
1 -0.73308557 0.55042267
1 -0.71051615 0.55058259
1 -0.68513691 0.54960507
1 -0.66851974 0.55006969
1 -0.64881235 0.54840928
1 -0.63012189 0.55009747
1 -0.60933995 0.54985088
1 -0.587107 0.54776192
1 -0.56924278 0.54831392
1 -0.54815066 0.54756844
1 -0.53095675 0.55028939
1 -0.50900191 0.5487501
1 -0.49103409 0.54879981
1 -0.46965307 0.55033559
1 -0.45002013 0.5488441
1 -0.42672148 0.54838449
1 -0.40717697 0.54967821
1 -0.38605565 0.55167776
1 -0.36820617 0.55160552
1 -0.34932661 0.55095559
1 -0.32636476 0.5486936
1 -0.30885053 0.54838848
1 -0.28960291 0.54836541
1 -0.27100998 0.54795349
1 -0.25194994 0.55216539
1 -0.2319047 0.55113572
1 -0.208565 0.54977012
1 -0.18950476 0.54945511
1 -0.16773696 0.54702896
1 -0.15253191 0.55322248
1 -0.12993976 0.54626119
1 -0.10991884 0.54817647
1 -0.089748383 0.55127037
1 -0.069609702 0.54748118
1 -0.048549693 0.55350137
1 -0.02940445 0.5500254
1 -0.010796845 0.54787385
1 0.0072718197 0.54646969
1 0.027861118 0.5503087
1 0.049348287 0.55029154
1 0.070519723 0.54558194
1 0.089084968 0.54846454
1 0.10845944 0.55252439
1 0.13040812 0.54946196
1 0.15005799 0.54978305
1 0.17032348 0.54833961
1 0.18767804 0.54776567
1 0.20738646 0.54908931
1 0.22686937 0.54875499
1 0.24934255 0.54975939
1 0.27089402 0.54980248
1 0.28857988 0.55372256
1 0.31307623 0.5517925
1 0.3298299 0.55377454
1 0.3497366 0.5499655
1 0.36979526 0.55070812
1 0.38808578 0.55165112
1 0.4128722 0.55302697
1 0.42836645 0.55004483
1 0.45175445 0.55308825
1 0.47093114 0.55134434
1 0.49042562 0.5495649
1 0.50656885 0.55328161
1 0.53097141 0.54828626
1 0.55323189 0.55163461
1 0.57043123 0.55170459
1 0.58800489 0.55064404
1 0.60903734 0.55238897
1 0.63134313 0.54784364
1 0.64931285 0.54902756
1 0.66987115 0.54907811
1 0.68945372 0.54896373
1 0.70735836 0.54801416
1 0.73036844 0.54895926
1 0.74892944 0.55316669
1 0.77074414 0.55023849
1 0.78990662 0.54693568
1 0.80969954 0.5485456
1 0.82868981 0.55060834
1 0.85064232 0.5511865
1 0.87121475 0.54991019
1 0.88823622 0.54833394
1 0.90680331 0.55071676
1 0.92677623 0.55300671
1 0.95025128 0.54831791
1 0.97470158 0.54776943
1 0.99343818 0.5515607
1 -0.98847878 0.56746447
1 -0.97339183 0.56928557
1 -0.94860202 0.56751567
1 -0.93101311 0.57090557
1 -0.90949172 0.57137358
1 -0.88904536 0.57587314
1 -0.86856788 0.57086748
1 -0.84952366 0.56998336
1 -0.82999277 0.56966507
1 -0.80756503 0.56880105
1 -0.78922844 0.57027555
1 -0.76815909 0.57361364
1 -0.75101292 0.56802654
1 -0.72905231 0.56539255
1 -0.70924062 0.57222384
1 -0.68832904 0.56894112
1 -0.6703862 0.56950849
1 -0.65054542 0.57253474
1 -0.63504922 0.5752759
1 -0.60594916 0.57069993
1 -0.59033006 0.57016039
1 -0.56939936 0.5703094
1 -0.54766488 0.56912977
1 -0.53321147 0.5675261
1 -0.51217198 0.56895518
1 -0.48763514 0.5715813
1 -0.46750796 0.56981587
1 -0.45002431 0.56915855
1 -0.42902154 0.56998944
1 -0.40867504 0.57028759
1 -0.39328656 0.57056999
1 -0.36990049 0.56962448
1 -0.34675574 0.56964332
1 -0.3256194 0.57169431
1 -0.31064841 0.57103223
1 -0.2891542 0.5660283
1 -0.27358744 0.5646081
1 -0.25055695 0.56920689
1 -0.23026325 0.56938863
1 -0.21152675 0.57001352
1 -0.19054385 0.56771266
1 -0.17058225 0.57038605
1 -0.14921021 0.56973338
1 -0.13160442 0.57167071
1 -0.10951742 0.57200044
1 -0.093833767 0.56985259
1 -0.068431377 0.56938648
1 -0.049522232 0.57172477
1 -0.027906775 0.57441032
1 -0.010774041 0.57103419
1 0.0092638731 0.57380641
1 0.030610526 0.5680536
1 0.054990452 0.57279408
1 0.070571944 0.57027113
1 0.087948062 0.57329208
1 0.11144755 0.5694173
1 0.1305531 0.56922019
1 0.14758804 0.57278937
1 0.16617146 0.57122034
1 0.18927321 0.56941748
1 0.2086798 0.56988305
1 0.23131111 0.56772876
1 0.24975654 0.56863916
1 0.27189726 0.56929421
1 0.28846437 0.56820041
1 0.31110778 0.5712443
1 0.3320156 0.57047498
1 0.34780693 0.57083195
1 0.36749765 0.56972092
1 0.39098445 0.57233965
1 0.40623555 0.56717271
1 0.43305585 0.57195759
1 0.45059949 0.57189125
1 0.46913007 0.57106268
1 0.49176303 0.57233804
1 0.51108539 0.57006538
1 0.52925003 0.56981754
1 0.54899055 0.56994808
1 0.57101715 0.56799382
1 0.58987284 0.57224488
1 0.61187613 0.57033986
1 0.63157928 0.57285255
1 0.64701539 0.57239592
1 0.66972375 0.57293224
1 0.68982792 0.57108307
1 0.71078277 0.56986654
1 0.72870356 0.57133037
1 0.7512247 0.56662726
1 0.76907021 0.57148665
1 0.78940541 0.56702942
1 0.81081158 0.5701642
1 0.83029616 0.56449622
1 0.84968251 0.57112086
1 0.86895722 0.57230687
1 0.89283913 0.56955314
1 0.91121787 0.57280827
1 0.92889339 0.57211953
1 0.95065379 0.56973839
1 0.97492474 0.57002002
1 0.98998725 0.57474852
1 -0.99025321 0.58948058
1 -0.97087163 0.59266633
1 -0.95183718 0.58585161
1 -0.92863542 0.5901143
1 -0.90744042 0.59462947
1 -0.88846087 0.59134322
1 -0.86749429 0.58692819
1 -0.8517459 0.59200364
1 -0.82956976 0.59043223
1 -0.81223786 0.585989
1 -0.79009402 0.59028751
1 -0.77164894 0.5893178
1 -0.75104839 0.58973056
1 -0.72791094 0.59196323
1 -0.70857728 0.59137291
1 -0.68848073 0.58676797
1 -0.66915429 0.58909541
1 -0.64993221 0.58793426
1 -0.63062429 0.5902251
1 -0.61478198 0.59135175
1 -0.5903334 0.59132862
1 -0.56677723 0.58777314
1 -0.54798388 0.58856356
1 -0.53076643 0.58988506
1 -0.50772446 0.59378064
1 -0.48829871 0.58931911
1 -0.47032428 0.5915519
1 -0.4495298 0.59403878
1 -0.43014306 0.58644158
1 -0.40774879 0.58764851
1 -0.38879251 0.58848399
1 -0.36894941 0.58825612
1 -0.34979418 0.58975565
1 -0.32758886 0.59055513
1 -0.30797893 0.59113508
1 -0.28510976 0.58713949
1 -0.27112469 0.59065527
1 -0.25101244 0.5935477
1 -0.22940874 0.58883953
1 -0.20725298 0.59084171
1 -0.19180541 0.5894593
1 -0.16826534 0.58833766
1 -0.15177131 0.58883274
1 -0.12906282 0.59242791
1 -0.11299121 0.59018552
1 -0.088950239 0.59292865
1 -0.069303319 0.59052074
1 -0.049134851 0.59037018
1 -0.031632043 0.59033078
1 -0.0077896649 0.58951128
1 0.0085354811 0.59164071
1 0.030482626 0.59251714
1 0.050429773 0.58927941
1 0.069763079 0.58776999
1 0.088974141 0.58999646
1 0.11062193 0.59314823
1 0.12971817 0.58794332
1 0.15277863 0.59310937
1 0.1703693 0.58887881
1 0.18907313 0.58898497
1 0.21030924 0.58970541
1 0.2281547 0.59089541
1 0.25135913 0.59239888
1 0.27134863 0.58871019
1 0.29091325 0.59208095
1 0.31239301 0.59137678
1 0.32998306 0.59242415
1 0.3499729 0.58961427
1 0.37384051 0.58808917
1 0.38823643 0.58985484
1 0.40985447 0.58876038
1 0.42569274 0.58846039
1 0.45000237 0.59042406
1 0.4688288 0.58728123
1 0.4910045 0.58928299
1 0.51170844 0.59223342
1 0.5296635 0.5907886
1 0.55229282 0.58909053
1 0.57152635 0.59035903
1 0.58963943 0.5905149
1 0.61119789 0.58733076
1 0.62644649 0.58772749
1 0.6495229 0.58734894
1 0.66696191 0.58756757
1 0.68941623 0.59094083
1 0.70947099 0.59142822
1 0.73037535 0.59143585
1 0.75283051 0.5932228
1 0.77414882 0.59505296
1 0.7919029 0.58955163
1 0.81132698 0.58693802
1 0.82804686 0.59011126
1 0.84591168 0.58852607
1 0.86883229 0.58855152
1 0.88991147 0.58959019
1 0.91024506 0.59291589
1 0.93188798 0.59057707
1 0.95175707 0.58986664
1 0.97137588 0.59037101
1 0.98831433 0.58969253
1 -0.98787755 0.60876262
1 -0.97048402 0.61172789
1 -0.94739723 0.6098206
1 -0.92785496 0.61037189
1 -0.90698248 0.60896039
1 -0.89189714 0.60814917
1 -0.86914802 0.60868561
1 -0.84948039 0.61090797
1 -0.82816458 0.61250329
1 -0.81356335 0.61120707
1 -0.79175252 0.61033183
1 -0.77242947 0.60699981
1 -0.74957591 0.61014104
1 -0.73119068 0.606754
1 -0.70957178 0.61166382
1 -0.69026071 0.60910296
1 -0.67184329 0.6101014
1 -0.64985812 0.60903704
1 -0.6274268 0.60848784
1 -0.60993081 0.61208266
1 -0.59181285 0.61195147
1 -0.56961054 0.60948306
1 -0.54869926 0.60892725
1 -0.52906871 0.61052948
1 -0.51054049 0.61061507
1 -0.49050894 0.61188763
1 -0.46831051 0.6110673
1 -0.45367762 0.61182886
1 -0.43037218 0.61177087
1 -0.41307387 0.60981476
1 -0.38878393 0.60359442
1 -0.36978817 0.60747302
1 -0.34661102 0.60950357
1 -0.33054036 0.60836595
1 -0.31097817 0.61297315
1 -0.29316768 0.61053318
1 -0.26810518 0.6086877
1 -0.25112486 0.61328304
1 -0.23100086 0.61041123
1 -0.20779736 0.61068451
1 -0.19157523 0.61144948
1 -0.16756679 0.60714877
1 -0.14789811 0.60954404
1 -0.13088703 0.61129808
1 -0.11090501 0.60930073
1 -0.091707304 0.60910505
1 -0.073593885 0.60934174
1 -0.049386978 0.60972661
1 -0.029560089 0.60963142
1 -0.0089392662 0.61400878
1 0.013510364 0.60880375
1 0.033073902 0.60961545
1 0.05099662 0.61079693
1 0.070193805 0.6123969
1 0.090051174 0.61030716
1 0.11228901 0.60761589
1 0.13223444 0.61038733
1 0.14802879 0.61184072
1 0.17083633 0.60933566
1 0.18804568 0.61163521
1 0.20865732 0.60737205
1 0.23109525 0.60982817
1 0.25049028 0.6084286
1 0.27185655 0.60988021
1 0.2928955 0.61093509
1 0.30790529 0.61128563
1 0.32984516 0.60619473
1 0.35007498 0.61046296
1 0.3713294 0.60898942
1 0.38936687 0.61006713
1 0.41237217 0.6092208
1 0.42611486 0.60881567
1 0.45206553 0.610708
1 0.47071621 0.61080277
1 0.49221095 0.60688084
1 0.51016825 0.61322021
1 0.52886975 0.60905898
1 0.55041409 0.61169732
1 0.57204258 0.60835695
1 0.5872156 0.60820735
1 0.61226362 0.61222315
1 0.63075322 0.61408401
1 0.65276074 0.61218876
1 0.66949874 0.61156029
1 0.69078362 0.61001277
1 0.7106092 0.61280388
1 0.7293334 0.61355346
1 0.75055361 0.61008734
1 0.77078867 0.60993963
1 0.79313719 0.61206037
1 0.80749536 0.60960001
1 0.83390611 0.60827219
1 0.8505438 0.61256832
1 0.87322539 0.60797644
1 0.88884383 0.61165053
1 0.91332614 0.60962629
1 0.92932683 0.61161536
1 0.95249569 0.61172092
1 0.96714038 0.60901159
1 0.99049968 0.60933429
1 -0.99305642 0.63003933
1 -0.96899176 0.62897032
1 -0.95035601 0.62782568
1 -0.93252546 0.63348871
1 -0.91341579 0.63005209
1 -0.89197952 0.62984681
1 -0.87246132 0.62943596
1 -0.84954739 0.63152093
1 -0.82893234 0.63139302
1 -0.80899781 0.62859964
1 -0.78997272 0.62891138
1 -0.76782924 0.63135278
1 -0.74792737 0.62941182
1 -0.73084986 0.63086909
1 -0.71267462 0.62749153
1 -0.68709701 0.6300348
1 -0.66590089 0.63174385
1 -0.6512745 0.62878978
1 -0.62903488 0.63099468
1 -0.61039913 0.63046485
1 -0.58995944 0.62878507
1 -0.5712595 0.62999409
1 -0.55058396 0.62833154
1 -0.5306412 0.62734884
1 -0.50841421 0.63128626
1 -0.48802352 0.63001728
1 -0.46850732 0.63058937
1 -0.44733387 0.63217753
1 -0.42961919 0.62879837
1 -0.40906605 0.62975192
1 -0.39021292 0.62710786
1 -0.37069342 0.62997955
1 -0.35107276 0.63420504
1 -0.32670724 0.62765807
1 -0.31254989 0.62752378
1 -0.29066816 0.62702096
1 -0.27177751 0.63028187
1 -0.24836916 0.62858993
1 -0.22813983 0.63040417
1 -0.21190535 0.63207263
1 -0.18901661 0.63046992
1 -0.17058411 0.62988746
1 -0.1501379 0.62934744
1 -0.12565169 0.62858212
1 -0.11000533 0.63380414
1 -0.088660248 0.6269545
1 -0.068155646 0.62916154
1 -0.051006317 0.63247669
1 -0.033370063 0.63240892
1 -0.0097608035 0.62825996
1 0.0080101313 0.62761164
1 0.026380062 0.63107747
1 0.04876978 0.62760603
1 0.070538595 0.62961948
1 0.091413714 0.63187557
1 0.11228176 0.62930715
1 0.13176207 0.63268507
1 0.150114 0.62890601
1 0.1685683 0.62974191
1 0.19134277 0.62901777
1 0.2085484 0.63091922
1 0.23088062 0.62931341
1 0.25227165 0.63026178
1 0.27020735 0.63027352
1 0.29101479 0.63085663
1 0.31209356 0.63241643
1 0.33061129 0.63167644
1 0.34871459 0.63212252
1 0.37218982 0.62977511
1 0.39070901 0.63258249
1 0.40793854 0.63212311
1 0.42879698 0.6295206
1 0.45143253 0.6289649
1 0.46880499 0.62910944
1 0.4938769 0.62960619
1 0.50828242 0.62999773
1 0.53011858 0.62645119
1 0.54717779 0.63139749
1 0.57317305 0.63074744
1 0.59055191 0.63346332
1 0.61130351 0.63079244
1 0.63134313 0.62764513
1 0.64930612 0.62873316
1 0.67139357 0.6270932
1 0.69077402 0.63105738
1 0.71052283 0.63071936
1 0.73215181 0.63223064
1 0.75090545 0.63069671
1 0.76891053 0.62953138
1 0.78625304 0.62676436
1 0.80825043 0.62911892
1 0.82715964 0.6294108
1 0.84803814 0.63128442
1 0.87450618 0.63313174
1 0.88971257 0.63064593
1 0.91014463 0.63012379
1 0.92806065 0.63120425
1 0.94724387 0.62973076
1 0.97030699 0.63035059
1 0.98775148 0.6318692
1 -0.98905367 0.65071577
1 -0.97043014 0.65019381
1 -0.95194829 0.64928371
1 -0.9295814 0.64678413
1 -0.90968513 0.65140092
1 -0.8883543 0.64941776
1 -0.86856753 0.64839268
1 -0.85162365 0.65022844
1 -0.82968783 0.65278691
1 -0.80712968 0.65036839
1 -0.78738379 0.64907295
1 -0.77156287 0.65284461
1 -0.74884313 0.6478532
1 -0.72808689 0.6482929
1 -0.7091229 0.65442574
1 -0.69006717 0.64646488
1 -0.6683315 0.65140933
1 -0.65038443 0.64956278
1 -0.63128358 0.64904094
1 -0.61233389 0.64872932
1 -0.58702242 0.65045428
1 -0.57087809 0.6525355
1 -0.54964352 0.64881897
1 -0.52854013 0.65427601
1 -0.5097664 0.65090179
1 -0.48837873 0.65136343
1 -0.46841842 0.65159625
1 -0.45260412 0.65357018
1 -0.43015939 0.649822
1 -0.4098649 0.65013844
1 -0.38759691 0.64954627
1 -0.36571836 0.65039033
1 -0.34760159 0.64936137
1 -0.32959601 0.64841872
1 -0.31136686 0.65113699
1 -0.29163879 0.64966607
1 -0.26909819 0.65154117
1 -0.24802101 0.65140498
1 -0.22865987 0.65098566
1 -0.20980617 0.64885962
1 -0.19524297 0.65166301
1 -0.16955629 0.65232551
1 -0.14934584 0.64707994
1 -0.12943295 0.64976496
1 -0.11295124 0.64986092
1 -0.090109609 0.65219194
1 -0.06542889 0.65143222
1 -0.048470594 0.64809275
1 -0.028903853 0.6474852
1 -0.010437155 0.65144813
1 0.0098131988 0.64889073
1 0.029394457 0.65026581
1 0.051998172 0.65166926
1 0.067955494 0.65431881
1 0.09257257 0.64830613
1 0.11251661 0.6475718
1 0.12691602 0.65014613
1 0.15021285 0.65055954
1 0.17049575 0.65204799
1 0.18812454 0.65227276
1 0.21290916 0.64523482
1 0.22660947 0.64966506
1 0.24924371 0.6488952
1 0.27337193 0.64585686
1 0.29211268 0.64837545
1 0.31090957 0.65288913
1 0.33060515 0.64971781
1 0.35188794 0.65223545
1 0.36829033 0.64870358
1 0.3934916 0.64874715
1 0.40985328 0.64998901
1 0.43183154 0.6528945
1 0.45217973 0.65224618
1 0.46949068 0.64954209
1 0.48949847 0.64751011
1 0.50816035 0.65075058
1 0.52561945 0.64838535
1 0.55002153 0.655267
1 0.5676285 0.64946681
1 0.58562052 0.65178329
1 0.61303121 0.65258449
1 0.63000929 0.65034109
1 0.6500591 0.65290588
1 0.66632521 0.6510067
1 0.69107485 0.64391971
1 0.70904773 0.65332985
1 0.7306577 0.6459651
1 0.74743694 0.65098208
1 0.77128613 0.65130806
1 0.79223841 0.64917833
1 0.80693877 0.65008962
1 0.83100665 0.65008086
1 0.85154897 0.64498955
1 0.87265921 0.65105945
1 0.89399552 0.64986074
1 0.90928167 0.64723361
1 0.92955178 0.64897513
1 0.95238429 0.65306842
1 0.9702996 0.64994651
1 0.99204123 0.65238285
1 -0.99097741 0.67102164
1 -0.97008407 0.67105323
1 -0.94916689 0.66877151
1 -0.93171173 0.66988224
1 -0.90587938 0.67186105
1 -0.8878547 0.66627711
1 -0.87043077 0.66867983
1 -0.85205853 0.67290986
1 -0.82719821 0.66795218
1 -0.81036925 0.66966188
1 -0.78787768 0.67265606
1 -0.77321118 0.66477978
1 -0.75188911 0.6719504
1 -0.73033631 0.6696257
1 -0.70873642 0.67345899
1 -0.68906045 0.66773319
1 -0.67014688 0.6709618
1 -0.64967787 0.67291671
1 -0.63359451 0.66887355
1 -0.61083454 0.67115504
1 -0.59114057 0.67083716
1 -0.57149553 0.67165786
1 -0.54895866 0.67191809
1 -0.52699679 0.66947168
1 -0.51278901 0.66950077
1 -0.48776373 0.67193031
1 -0.4689863 0.67385197
1 -0.4491652 0.67019469
1 -0.43036708 0.66639799
1 -0.41008145 0.67177552
1 -0.38572541 0.67082959
1 -0.37222114 0.67286646
1 -0.35060421 0.66586405
1 -0.32885253 0.6702832
1 -0.3114225 0.67381448
1 -0.28956801 0.67219561
1 -0.26888824 0.67375898
1 -0.24956174 0.66993791
1 -0.22971889 0.67290765
1 -0.21034129 0.66610795
1 -0.18905485 0.66981727
1 -0.17488894 0.6703791
1 -0.14689688 0.67368424
1 -0.13181715 0.66880536
1 -0.10907992 0.67022395
1 -0.089770056 0.66867238
1 -0.070820861 0.67287475
1 -0.049319375 0.6674397
1 -0.029288953 0.67014396
1 -0.011791759 0.66868234
1 0.0086960113 0.66996557
1 0.030634595 0.67361891
1 0.047980644 0.66995573
1 0.070199631 0.66909552
1 0.093877591 0.67293733
1 0.10517836 0.67124909
1 0.12910089 0.66919267
1 0.15000322 0.67165792
1 0.17052011 0.67252856
1 0.18908386 0.67134202
1 0.21125893 0.66985571
1 0.23305595 0.66993427
1 0.25261611 0.66970968
1 0.27155882 0.66987199
1 0.2873717 0.66754252
1 0.31168911 0.67147255
1 0.32860121 0.66886926
1 0.34839854 0.67008746
1 0.37028989 0.67428988
1 0.39070168 0.67250103
1 0.40953326 0.67042089
1 0.43236458 0.66671193
1 0.45179051 0.66479415
1 0.46751934 0.67096043
1 0.48914772 0.67071086
1 0.51088822 0.67176455
1 0.52970266 0.66846609
1 0.54959512 0.67189294
1 0.56910169 0.66763395
1 0.58980572 0.67202938
1 0.61095995 0.67022115
1 0.62994558 0.67007917
1 0.6525982 0.67206627
1 0.66552019 0.66636395
1 0.68893999 0.66945463
1 0.70900881 0.66844112
1 0.72962648 0.66959566
1 0.75251812 0.6667394
1 0.77002162 0.66944158
1 0.78607935 0.67221826
1 0.8098734 0.67032844
1 0.8314501 0.66708308
1 0.85094881 0.67234612
1 0.8653152 0.67027265
1 0.88925385 0.67250854
1 0.90679014 0.67035604
1 0.92800015 0.66737348
1 0.95566434 0.67244971
1 0.96884966 0.66791517
1 0.98768377 0.66966945
1 -0.98750943 0.68973422
1 -0.96924609 0.68703401
1 -0.94907749 0.69089282
1 -0.93215734 0.69061798
1 -0.91316485 0.68832475
1 -0.89209849 0.69171196
1 -0.86965466 0.69202554
1 -0.85003603 0.6915862
1 -0.82981932 0.68830556
1 -0.80949706 0.69220161
1 -0.78969127 0.68869942
1 -0.77027822 0.68728387
1 -0.75053799 0.69040829
1 -0.72859627 0.69230127
1 -0.7092343 0.69120926
1 -0.69374102 0.69006687
1 -0.67014086 0.68652886
1 -0.64966422 0.68947977
1 -0.63067776 0.69020003
1 -0.61331391 0.68919295
1 -0.58904415 0.68880075
1 -0.57267737 0.69227737
1 -0.55041969 0.69055265
1 -0.53183419 0.69142789
1 -0.51096404 0.6930443
1 -0.49049056 0.69439125
1 -0.46989653 0.69110674
1 -0.44880462 0.68736804
1 -0.42637438 0.68989426
1 -0.40761566 0.69146562
1 -0.39053175 0.6897133
1 -0.36869296 0.68848389
1 -0.34862354 0.689188
1 -0.33266899 0.68753672
1 -0.30770391 0.68927389
1 -0.28879231 0.68949103
1 -0.27166682 0.69288594
1 -0.25006339 0.69021058
1 -0.23018265 0.68935657
1 -0.21150489 0.68907231
1 -0.19191444 0.68877572
1 -0.16947764 0.69146025
1 -0.1499044 0.68899626
1 -0.1295578 0.69099301
1 -0.10652494 0.68456376
1 -0.092101626 0.69115108
1 -0.074113846 0.69042635
1 -0.047492132 0.68756849
1 -0.029939875 0.69138873
1 -0.0058841174 0.69111174
1 0.0085227489 0.69118088
1 0.031638004 0.68926162
1 0.048929311 0.686589
1 0.070702396 0.6879487
1 0.092098236 0.69500077
1 0.11228746 0.68849534
1 0.13293037 0.69111747
1 0.15055025 0.68975747
1 0.17095825 0.68966424
1 0.18862504 0.69054627
1 0.20971929 0.69031286
1 0.22934847 0.68933433
1 0.24977186 0.69175321
1 0.27044427 0.6891672
1 0.29447699 0.69698811
1 0.31196776 0.6885187
1 0.32800922 0.69227499
1 0.35360628 0.68896663
1 0.36986178 0.68884563
1 0.39045206 0.68892998
1 0.40789387 0.69081938
1 0.43148151 0.68768239
1 0.45015058 0.68897212
1 0.46673942 0.69319129
1 0.48909536 0.68810338
1 0.5063417 0.69215471
1 0.53267866 0.69032758
1 0.54938793 0.69270182
1 0.57218456 0.69180238
1 0.59137887 0.69183862
1 0.61064941 0.69100678
1 0.62973332 0.69158626
1 0.64963561 0.69207197
1 0.66862363 0.68918812
1 0.68970734 0.69230825
1 0.71090227 0.69013077
1 0.72942787 0.69173932
1 0.75026339 0.69122165
1 0.77178204 0.69043988
1 0.790259 0.68870831
1 0.80978 0.68782401
1 0.82723486 0.69260901
1 0.85143656 0.6896168
1 0.87427902 0.68676633
1 0.88916701 0.69156706
1 0.91219449 0.69178522
1 0.92856842 0.69231635
1 0.95497727 0.69232029
1 0.96940804 0.68988204
1 0.99048412 0.68814176
1 -0.98998201 0.70916575
1 -0.96966809 0.70931935
1 -0.9507336 0.71164191
1 -0.9316985 0.71407253
1 -0.90795773 0.71262759
1 -0.88853413 0.70993811
1 -0.87105733 0.7113204
1 -0.84870422 0.71072966
1 -0.82980299 0.71015853
1 -0.80871594 0.70950001
1 -0.79228354 0.71043098
1 -0.77065867 0.70767874
1 -0.75403005 0.71146077
1 -0.72914088 0.71217054
1 -0.7116707 0.71062362
1 -0.69284242 0.71305388
1 -0.67410308 0.70926255
1 -0.64929128 0.70941758
1 -0.63110548 0.71060872
1 -0.61329424 0.70892346
1 -0.58959913 0.70920181
1 -0.5682534 0.70859277
1 -0.5500071 0.70823789
1 -0.5314945 0.71314937
1 -0.50943995 0.70780486
1 -0.49105328 0.71074468
1 -0.47281533 0.71317071
1 -0.45201388 0.71428752
1 -0.42964521 0.70916295
1 -0.4083961 0.71167004
1 -0.39236251 0.71214634
1 -0.36939645 0.71021903
1 -0.34703061 0.70931572
1 -0.32902059 0.71569061
1 -0.31270692 0.71217263
1 -0.2902804 0.71118087
1 -0.2716895 0.71066391
1 -0.24715674 0.71136993
1 -0.23056427 0.71103489
1 -0.20795986 0.71221042
1 -0.19341314 0.70814228
1 -0.17122978 0.70883989
1 -0.14890604 0.7109825
1 -0.12840548 0.70675379
1 -0.10813183 0.70875198
1 -0.090720437 0.70927256
1 -0.069826126 0.71035373
1 -0.05084005 0.70888489
1 -0.029992709 0.71082246
1 -0.0082940664 0.71089047
1 0.0084081888 0.71111488
1 0.028931761 0.70745653
1 0.052789211 0.70960736
1 0.072441578 0.70805711
1 0.08870212 0.70875615
1 0.10827603 0.7108497
1 0.12902808 0.71517527
1 0.14946456 0.70840025
1 0.1732545 0.70980966
1 0.19082895 0.70636505
1 0.2118437 0.71152812
1 0.23063922 0.70825374
1 0.24979463 0.70851654
1 0.26482734 0.70888817
1 0.29166526 0.70732379
1 0.31216556 0.708399
1 0.32978436 0.70588046
1 0.34738153 0.71118736
1 0.37271795 0.70913994
1 0.39129239 0.71090955
1 0.41161036 0.71057498
1 0.43072864 0.71253765
1 0.45078403 0.7077688
1 0.46974558 0.70966601
1 0.49043232 0.70874345
1 0.50910205 0.70793658
1 0.53002608 0.70998091
1 0.55105412 0.70993543
1 0.56949323 0.70905972
1 0.58755845 0.7036069
1 0.61263925 0.71171063
1 0.6324994 0.70738107
1 0.64884585 0.70911127
1 0.66807318 0.70889491
1 0.68935585 0.71065855
1 0.71139407 0.71027982
1 0.72709113 0.71145552
1 0.75129622 0.70888042
1 0.77020234 0.70997953
1 0.79025686 0.70681089
1 0.80990982 0.71024072
1 0.82748783 0.71389645
1 0.85085279 0.70582557
1 0.86700934 0.71078831
1 0.88903618 0.70898896
1 0.91144633 0.71329755
1 0.93194479 0.70858902
1 0.95422298 0.71381348
1 0.96930248 0.70859885
1 0.98758179 0.71027189
1 -0.98911375 0.73038137
1 -0.97077733 0.72955966
1 -0.94834667 0.72955614
1 -0.92938995 0.72674686
1 -0.91164553 0.72902936
1 -0.89032459 0.7319237
1 -0.87027991 0.73139501
1 -0.85159302 0.7310037
1 -0.82604909 0.72956222
1 -0.81052566 0.72862273
1 -0.79369009 0.72382963
1 -0.77031142 0.73065126
1 -0.7519697 0.73111981
1 -0.72842658 0.73135918
1 -0.71162677 0.72769314
1 -0.69108313 0.72975171
1 -0.6703788 0.73328149
1 -0.65061414 0.72659361
1 -0.63137811 0.73032212
1 -0.61402416 0.73376405
1 -0.58928394 0.72850198
1 -0.57233357 0.72492343
1 -0.5517745 0.72941083
1 -0.53391546 0.73153836
1 -0.50782347 0.72819102
1 -0.49199343 0.73224354
1 -0.4692283 0.73104852
1 -0.45099667 0.73042333
1 -0.42924657 0.72715837
1 -0.40799201 0.73095059
1 -0.38948995 0.73031187
1 -0.37251648 0.72854644
1 -0.34963584 0.73069143
1 -0.33066973 0.73043251
1 -0.31035712 0.72796178
1 -0.28697845 0.72978544
1 -0.27096543 0.73160219
1 -0.25262347 0.72944134
1 -0.23188163 0.72988486
1 -0.20806558 0.72999603
1 -0.18948643 0.73234099
1 -0.17060152 0.7308287
1 -0.15339351 0.73039526
1 -0.13401127 0.73117298
1 -0.11269304 0.72599572
1 -0.092603736 0.72901773
1 -0.068376213 0.729972
1 -0.051505495 0.73192465
1 -0.028903533 0.73203111
1 -0.0088626146 0.73306185
1 0.011374176 0.73126674
1 0.03175211 0.72983909
1 0.051555343 0.73258007
1 0.070837103 0.7289505
1 0.086021245 0.72889882
1 0.1125619 0.72824478
1 0.13137114 0.73161978
1 0.14714774 0.72903895
1 0.16917229 0.72527552
1 0.18812472 0.72684759
1 0.21387769 0.73423237
1 0.23052406 0.72941697
1 0.25053596 0.72915995
1 0.27072221 0.72851682
1 0.29097596 0.73073864
1 0.31177646 0.73122454
1 0.33108646 0.73136234
1 0.35184002 0.72821438
1 0.36777765 0.72857755
1 0.39043856 0.73027724
1 0.41331264 0.7281673
1 0.43217182 0.72955936
1 0.45027614 0.73216099
1 0.47310507 0.72844452
1 0.48951587 0.72940505
1 0.5112747 0.73017174
1 0.53104967 0.73257625
1 0.55355722 0.72911417
1 0.56723589 0.72873664
1 0.59026265 0.72964466
1 0.61016244 0.72673494
1 0.62993014 0.73244035
1 0.64536405 0.73100835
1 0.67139226 0.72587752
1 0.68951106 0.72720844
1 0.70838916 0.73350227
1 0.72972822 0.73553216
1 0.75107533 0.72791004
1 0.76862824 0.72927433
1 0.79216433 0.72792882
1 0.80734897 0.73024851
1 0.82827246 0.72885513
1 0.8478781 0.73231113
1 0.86872083 0.73356497
1 0.89262182 0.72912002
1 0.91144937 0.73052639
1 0.92914349 0.72636974
1 0.95368719 0.72896802
1 0.96872264 0.72935957
1 0.99274272 0.72990876
1 -0.99072587 0.74815577
1 -0.97014564 0.74976236
1 -0.95087785 0.74988192
1 -0.9275769 0.75161195
1 -0.91018635 0.75069445
1 -0.88991016 0.75179178
1 -0.87235379 0.75124288
1 -0.84959114 0.75235391
1 -0.83080846 0.74913174
1 -0.80950123 0.75182492
1 -0.78965515 0.74992579
1 -0.77317643 0.74897689
1 -0.75103599 0.74887133
1 -0.7288245 0.75143492
1 -0.70899773 0.74665254
1 -0.68846691 0.75220889
1 -0.66895097 0.7480185
1 -0.65042406 0.7532475
1 -0.62923253 0.75032294
1 -0.60666054 0.74838334
1 -0.59154665 0.74799329
1 -0.57103461 0.74862093
1 -0.55304563 0.74963635
1 -0.52844793 0.74642235
1 -0.51018304 0.74815428
1 -0.48953554 0.75119388
1 -0.47004372 0.75146031
1 -0.45060307 0.74715918
1 -0.42803779 0.75085926
1 -0.41228858 0.74746639
1 -0.38849241 0.7540884
1 -0.37257153 0.75020516
1 -0.35164997 0.74886596
1 -0.32861012 0.7493996
1 -0.3114956 0.75076079
1 -0.2921401 0.75001878
1 -0.27108616 0.75160116
1 -0.24905621 0.74719787
1 -0.23029916 0.75178051
1 -0.21028332 0.75226992
1 -0.19082466 0.74998945
1 -0.16919041 0.7512812
1 -0.15158902 0.74710691
1 -0.12907609 0.75146073
1 -0.10685381 0.75095785
1 -0.088820189 0.7491203
1 -0.071368597 0.75292045
1 -0.049180802 0.74979258
1 -0.027986893 0.75006431
1 -0.007072608 0.75047225
1 0.0099262241 0.74890339
1 0.031865757 0.75186193
1 0.049882889 0.75226074
1 0.06997519 0.7504217
1 0.091064177 0.74916762
1 0.10798089 0.75203413
1 0.13024335 0.75050533
1 0.14980686 0.75224173
1 0.17157173 0.75039291
1 0.1878204 0.75031507
1 0.20741053 0.74694443
1 0.22820027 0.75117773
1 0.24950372 0.74626726
1 0.27094015 0.75267482
1 0.29026857 0.75084794
1 0.30868676 0.75043482
1 0.32926503 0.7501058
1 0.35100007 0.7459659
1 0.37176111 0.75124866
1 0.3926104 0.74873006
1 0.40888512 0.74961078
1 0.42959344 0.75057954
1 0.45146233 0.74698198
1 0.46957925 0.75035018
1 0.48791301 0.74995875
1 0.51548266 0.74938965
1 0.52845061 0.74867493
1 0.54911888 0.74798501
1 0.5690937 0.75085938
1 0.58976728 0.7508238
1 0.61045849 0.75117058
1 0.6311577 0.75099117
1 0.65003747 0.75072557
1 0.66918212 0.75106275
1 0.69273198 0.75296682
1 0.71149111 0.74863738
1 0.72691482 0.74997544
1 0.7483629 0.74953812
1 0.7692644 0.75333828
1 0.78621334 0.75026172
1 0.81055623 0.75472802
1 0.82767355 0.75006038
1 0.848786 0.74937749
1 0.86941028 0.74740583
1 0.89412969 0.74869537
1 0.9103753 0.74733114
1 0.93087292 0.7492699
1 0.94921792 0.75225711
1 0.96992797 0.74864835
1 0.98664939 0.74890667
1 -0.99382305 0.76837873
1 -0.97035968 0.76917285
1 -0.94972527 0.77076221
1 -0.92788863 0.77028477
1 -0.91091049 0.77090967
1 -0.88731825 0.76675206
1 -0.8683154 0.7676878
1 -0.85042518 0.76736188
1 -0.83025724 0.77110869
1 -0.81012821 0.77165902
1 -0.78952706 0.76702935
1 -0.77026159 0.76690584
1 -0.74828058 0.76835114
1 -0.72804374 0.76811558
1 -0.71171844 0.7721101
1 -0.68648875 0.76855177
1 -0.67149895 0.76880187
1 -0.64796078 0.77043337
1 -0.6317749 0.76940668
1 -0.61083961 0.76816881
1 -0.58876598 0.76782715
1 -0.57086271 0.77165496
1 -0.54953778 0.76949406
1 -0.53039742 0.76797742
1 -0.50695026 0.77094567
1 -0.4880459 0.76915526
1 -0.46873215 0.767519
1 -0.45321161 0.76767582
1 -0.42778054 0.76751143
1 -0.4074479 0.77055955
1 -0.39163935 0.76647544
1 -0.37006658 0.76973873
1 -0.35152203 0.77141613
1 -0.32894272 0.77379453
1 -0.30705047 0.77297795
1 -0.29094544 0.76886034
1 -0.27042437 0.77243841
1 -0.2507236 0.77050638
1 -0.23112607 0.77142775
1 -0.21080343 0.76993942
1 -0.18836467 0.76853198
1 -0.16789076 0.77228099
1 -0.1490476 0.76900434
1 -0.13072908 0.76867336
1 -0.10909146 0.77058256
1 -0.090252735 0.76788515
1 -0.069041632 0.76947653
1 -0.055089395 0.76989806
1 -0.028497113 0.77110124
1 -0.010614539 0.76566607
1 0.01199219 0.77115047
1 0.028400581 0.76983392
1 0.051948883 0.77098656
1 0.072015129 0.77098984
1 0.089449443 0.76962489
1 0.1084405 0.77064991
1 0.13126929 0.76716894
1 0.15000759 0.76977277
1 0.17099249 0.76707417
1 0.1907991 0.76789844
1 0.21248627 0.76906627
1 0.2276976 0.77104813
1 0.24803849 0.77006555
1 0.27062398 0.76963854
1 0.29226744 0.77125323
1 0.31115991 0.7695545
1 0.33039466 0.76956493
1 0.34980318 0.77296352
1 0.36686823 0.77014369
1 0.38877422 0.76914245
1 0.40811178 0.77248424
1 0.43068096 0.76866972
1 0.44728681 0.771191
1 0.47218716 0.7714138
1 0.49078697 0.77019739
1 0.51196766 0.7698487
1 0.531313 0.76781148
1 0.55135494 0.76937711
1 0.5675838 0.77040046
1 0.59026986 0.76861304
1 0.60787702 0.77052677
1 0.63159221 0.77266258
1 0.65146482 0.76760948
1 0.66857398 0.77151746
1 0.68899798 0.76687276
1 0.70901227 0.77088845
1 0.72796756 0.76829505
1 0.75264519 0.77120161
1 0.76948708 0.77139372
1 0.78830594 0.76867992
1 0.80813628 0.76797938
1 0.83442879 0.76696944
1 0.84516692 0.76893121
1 0.8685323 0.77022278
1 0.89066333 0.77090353
1 0.9086526 0.77263063
1 0.92852807 0.76655239
1 0.95012695 0.77269053
1 0.97198677 0.76843709
1 0.9883548 0.76885849
1 -0.98949814 0.79472291
1 -0.97197104 0.78790724
1 -0.94853079 0.79073614
1 -0.93082428 0.7901749
1 -0.91157842 0.79034352
1 -0.88891548 0.79032099
1 -0.86612785 0.78929573
1 -0.8491286 0.78940403
1 -0.83243889 0.79101151
1 -0.81205648 0.78796399
1 -0.78969449 0.7925567
1 -0.76809978 0.79315734
1 -0.75265497 0.78991389
1 -0.72975332 0.78963584
1 -0.70954537 0.78917354
1 -0.69004649 0.78677523
1 -0.6701299 0.78735352
1 -0.647699 0.78920156
1 -0.63183874 0.79176223
1 -0.60835719 0.78901112
1 -0.59076869 0.79239374
1 -0.57121581 0.78810269
1 -0.54934847 0.79242009
1 -0.53130412 0.78795803
1 -0.51062262 0.78721231
1 -0.49135903 0.78911215
1 -0.46964598 0.78706092
1 -0.45110542 0.78835094
1 -0.43078727 0.78837329
1 -0.41157517 0.79079574
1 -0.38768947 0.78538698
1 -0.37041622 0.78923541
1 -0.35083058 0.79240823
1 -0.33440188 0.79001307
1 -0.31517717 0.78712255
1 -0.28875902 0.78948736
1 -0.26607269 0.79081148
1 -0.24914168 0.79144549
1 -0.22937462 0.78864551
1 -0.21026891 0.78796017
1 -0.19290863 0.78962386
1 -0.1730634 0.78994858
1 -0.15286228 0.7866177
1 -0.12818232 0.79042888
1 -0.11219299 0.78845704
1 -0.092936516 0.78979015
1 -0.069783531 0.78881872
1 -0.048232239 0.79181409
1 -0.02980466 0.79415107
1 -0.012643815 0.7915265
1 0.005384624 0.79417539
1 0.032034636 0.7896468
1 0.047181182 0.78914213
1 0.071386099 0.79010057
1 0.089676224 0.78840297
1 0.10921018 0.78940982
1 0.12982696 0.79047149
1 0.14878798 0.79166269
1 0.17059089 0.78489023
1 0.18501668 0.79100806
1 0.2098439 0.79175878
1 0.23170686 0.78557324
1 0.24749498 0.7906456
1 0.27408725 0.79020303
1 0.29009527 0.78912795
1 0.31118479 0.79284549
1 0.32905164 0.78823549
1 0.34852147 0.78948438
1 0.37040216 0.79037666
1 0.38922784 0.78774047
1 0.40732479 0.79180622
1 0.42557794 0.78847647
1 0.44736597 0.78871459
1 0.47073156 0.78907496
1 0.48937255 0.78992474
1 0.50982952 0.79032284
1 0.53202647 0.79030472
1 0.55278826 0.79213929
1 0.57325053 0.79122901
1 0.59124023 0.78701055
1 0.6074425 0.7923125
1 0.62672347 0.79166234
1 0.65112793 0.78700751
1 0.66910219 0.79002339
1 0.68885785 0.789473
1 0.71007407 0.7883538
1 0.72926921 0.78765553
1 0.74899197 0.78954017
1 0.77017522 0.78874427
1 0.79035819 0.78998911
1 0.81316841 0.79022098
1 0.82703632 0.78902525
1 0.85069799 0.79210222
1 0.86894518 0.7908287
1 0.88921738 0.7895022
1 0.90986365 0.78888339
1 0.93149191 0.78902781
1 0.95007116 0.78746456
1 0.96881157 0.78757536
1 0.99254221 0.79302847
1 -0.98797703 0.81187242
1 -0.96899402 0.81184244
1 -0.9504317 0.80698943
1 -0.92957669 0.81249011
1 -0.91042894 0.80841285
1 -0.8882041 0.81019938
1 -0.87190485 0.81018847
1 -0.8484028 0.8084628
1 -0.83235747 0.81035918
1 -0.81177855 0.81218576
1 -0.79191524 0.80883116
1 -0.77186787 0.80887967
1 -0.74984491 0.81113422
1 -0.73056763 0.80937099
1 -0.71122766 0.80882305
1 -0.68990743 0.81100053
1 -0.67411816 0.81426382
1 -0.65030974 0.81200844
1 -0.6332621 0.81092805
1 -0.6117388 0.80733269
1 -0.58670503 0.81016719
1 -0.57026625 0.81201243
1 -0.55257273 0.80516928
1 -0.52907938 0.81076717
1 -0.51118213 0.80831528
1 -0.48765409 0.81186068
1 -0.47123611 0.81267929
1 -0.44744405 0.80941778
1 -0.42906091 0.81072009
1 -0.40886188 0.80989128
1 -0.38735843 0.81007022
1 -0.37081847 0.81260902
1 -0.35087761 0.8119961
1 -0.33172846 0.81044447
1 -0.31368956 0.81049567
1 -0.28851938 0.81037283
1 -0.27121639 0.80941987
1 -0.25090179 0.81267083
1 -0.23089704 0.80833489
1 -0.20904152 0.80749512
1 -0.18964334 0.80995917
1 -0.16983186 0.81058025
1 -0.14977391 0.81015676
1 -0.12865591 0.81300342
1 -0.11251577 0.81229007
1 -0.089880072 0.81039327
1 -0.0729426 0.81016994
1 -0.050324388 0.8104614
1 -0.032803535 0.80991822
1 -0.0091162007 0.81129837
1 0.0066395761 0.80931848
1 0.023637375 0.81015074
1 0.049950384 0.8123703
1 0.073906161 0.8117013
1 0.091704488 0.81033313
1 0.10704249 0.8135373
1 0.13003866 0.81128186
1 0.14778376 0.80798769
1 0.16986153 0.80839032
1 0.19059072 0.80747116
1 0.20981923 0.80787069
1 0.23081051 0.80869085
1 0.24803381 0.81024188
1 0.27073905 0.81078738
1 0.29153538 0.8126933
1 0.31334725 0.81255686
1 0.33117867 0.8099218
1 0.35230368 0.80977112
1 0.37082395 0.81327444
1 0.39189565 0.80942714
1 0.40794203 0.80731577
1 0.42939863 0.8055374
1 0.44631797 0.80877745
1 0.47082138 0.80605996
1 0.49088296 0.80947697
1 0.51282728 0.80932564
1 0.53107244 0.81170923
1 0.54682988 0.80440646
1 0.56762367 0.80883467
1 0.59147626 0.81397182
1 0.60948586 0.81048131
1 0.62957782 0.81077856
1 0.65013379 0.80955577
1 0.67066997 0.8122378
1 0.69213665 0.81055796
1 0.70933431 0.81146812
1 0.72874188 0.80773193
1 0.75113994 0.80867219
1 0.76809496 0.81407899
1 0.79279977 0.81259245
1 0.81228685 0.80915463
1 0.82792634 0.80811846
1 0.85173815 0.80909717
1 0.86817539 0.8090843
1 0.88832265 0.80626339
1 0.90940136 0.80941284
1 0.92860961 0.80911428
1 0.94923031 0.80853528
1 0.97070181 0.81008959
1 0.99111539 0.8069784
1 -0.99034369 0.83292598
1 -0.97464508 0.82898504
1 -0.95356393 0.8289535
1 -0.93132037 0.82977635
1 -0.91167474 0.83078849
1 -0.88945103 0.83439964
1 -0.86685199 0.83354676
1 -0.85114539 0.83395934
1 -0.83179915 0.83321917
1 -0.80943787 0.82866341
1 -0.79221326 0.83109331
1 -0.77044821 0.83289719
1 -0.74964726 0.82520562
1 -0.7295959 0.82901978
1 -0.70994133 0.8259806
1 -0.68960094 0.83089805
1 -0.67063558 0.83687603
1 -0.65256703 0.8283999
1 -0.62993944 0.83072364
1 -0.61191267 0.82828456
1 -0.59080923 0.82803118
1 -0.57083327 0.82954812
1 -0.55032736 0.82887268
1 -0.52925527 0.82761788
1 -0.50976789 0.8319369
1 -0.49008372 0.829063
1 -0.47281408 0.82808048
1 -0.44944707 0.82823902
1 -0.42989385 0.83016694
1 -0.41043431 0.82955712
1 -0.39082173 0.82886797
1 -0.36815956 0.8287946
1 -0.35155937 0.83071536
1 -0.32560125 0.83288884
1 -0.31134748 0.83385253
1 -0.29196319 0.83062023
1 -0.26902503 0.82756484
1 -0.24703291 0.8309682
1 -0.23210646 0.82851362
1 -0.21024476 0.83080417
1 -0.19027679 0.82945698
1 -0.1716401 0.82950801
1 -0.15316401 0.82607234
1 -0.13072172 0.82876664
1 -0.10980373 0.82830268
1 -0.093450069 0.82958156
1 -0.074075513 0.83382809
1 -0.050075606 0.82771116
1 -0.029120063 0.8295809
1 -0.00722674 0.82851714
1 0.0078721847 0.8312313
1 0.030440385 0.82999444
1 0.054257333 0.83063984
1 0.071536541 0.82953304
1 0.089962222 0.82792634
1 0.10877337 0.8334288
1 0.13300842 0.82753593
1 0.15009002 0.82671833
1 0.16911948 0.82939255
1 0.18984042 0.83129156
1 0.21058188 0.83056146
1 0.22837448 0.83200401
1 0.24318397 0.82792997
1 0.27013311 0.82739991
1 0.28885838 0.82951176
1 0.3075096 0.83440399
1 0.3293952 0.8316412
1 0.34915257 0.82782996
1 0.36871868 0.83154768
1 0.38939258 0.82860124
1 0.40838307 0.83078682
1 0.43009239 0.83146149
1 0.45160207 0.83074558
1 0.47077265 0.83099693
1 0.49267927 0.83291465
1 0.51294577 0.82803226
1 0.5313077 0.82925892
1 0.55064946 0.82591599
1 0.56927663 0.83148491
1 0.58952433 0.82896829
1 0.61061347 0.82889867
1 0.63362849 0.83133364
1 0.65300298 0.830275
1 0.66815901 0.83091921
1 0.69079202 0.83407682
1 0.71119553 0.82694393
1 0.73105365 0.83170897
1 0.74870092 0.83161873
1 0.76887959 0.83120388
1 0.78658712 0.83143723
1 0.80958855 0.82818222
1 0.82797039 0.8290422
1 0.84998131 0.83118767
1 0.86945331 0.831581
1 0.89258969 0.83057696
1 0.90788686 0.82672817
1 0.93087137 0.82935715
1 0.94946808 0.83088338
1 0.96664554 0.82646769
1 0.98983312 0.82928705
1 -0.98859823 0.8533985
1 -0.96734864 0.84798503
1 -0.94497907 0.8504768
1 -0.92958063 0.85064858
1 -0.9122715 0.85107058
1 -0.89308518 0.85319579
1 -0.87236053 0.85212815
1 -0.85257733 0.84966195
1 -0.82831132 0.84950906
1 -0.80699986 0.84944564
1 -0.78935844 0.85410547
1 -0.76852852 0.85251921
1 -0.74813724 0.85137963
1 -0.73032153 0.84928244
1 -0.70952892 0.85238844
1 -0.69243556 0.84643489
1 -0.67174941 0.84629291
1 -0.65044385 0.84932965
1 -0.62675285 0.85065305
1 -0.61178863 0.84963721
1 -0.5890429 0.85525793
1 -0.57237804 0.84798419
1 -0.55174297 0.84663594
1 -0.52934557 0.84946996
1 -0.51065922 0.84988707
1 -0.48843011 0.84857488
1 -0.46983674 0.85215271
1 -0.44790065 0.85154277
1 -0.43288857 0.85274792
1 -0.40951765 0.85330927
1 -0.39029956 0.85026538
1 -0.3698267 0.85018361
1 -0.34950697 0.84983373
1 -0.33127299 0.84901887
1 -0.30939841 0.85121804
1 -0.29110596 0.84903312
1 -0.27012932 0.85180491
1 -0.24806453 0.85134798
1 -0.22822696 0.84863943
1 -0.21231006 0.84956527
1 -0.18990789 0.8507818
1 -0.16990724 0.84890884
1 -0.14833656 0.85030061
1 -0.12833148 0.85112804
1 -0.1102688 0.85223037
1 -0.0925458 0.84883231
1 -0.070634529 0.84939188
1 -0.052306496 0.84874237
1 -0.028678596 0.85208946
1 -0.014162382 0.8481667
1 0.0065389276 0.85143632
1 0.030093957 0.8500396
1 0.047869205 0.84914219
1 0.068397522 0.85113686
1 0.090001345 0.85058659
1 0.10958276 0.84785539
1 0.1309247 0.85089397
1 0.14836417 0.84929866
1 0.17013915 0.85123616
1 0.18892756 0.84951293
1 0.21051094 0.8511197
1 0.23260944 0.85522193
1 0.24929397 0.85293043
1 0.26936936 0.84881961
1 0.2904402 0.8465203
1 0.30998507 0.85113734
1 0.32891273 0.84720433
1 0.3497313 0.85194147
1 0.37216386 0.84516013
1 0.38674921 0.84998238
1 0.41006836 0.85219312
1 0.42558822 0.85003763
1 0.44768873 0.85091424
1 0.47552595 0.84457964
1 0.49195266 0.85014063
1 0.51016915 0.85250139
1 0.52872151 0.84945667
1 0.54609054 0.84956402
1 0.57218772 0.84652442
1 0.58872008 0.84800535
1 0.61101151 0.84968001
1 0.62988895 0.85207599
1 0.64677155 0.84812337
1 0.67152238 0.84811068
1 0.68846577 0.84772736
1 0.70449936 0.85132945
1 0.73213559 0.84970647
1 0.75436842 0.84607017
1 0.76892686 0.84941119
1 0.7895 0.85228866
1 0.80739772 0.85204977
1 0.8259756 0.85171771
1 0.84952819 0.84926927
1 0.87130111 0.84968406
1 0.89169949 0.85038608
1 0.90869206 0.84849387
1 0.92939627 0.84740001
1 0.94980401 0.85012382
1 0.97116184 0.8486883
1 0.99097967 0.84931701
1 -0.98907113 0.87185705
1 -0.9698956 0.87046045
1 -0.94997334 0.86813778
1 -0.92772603 0.86647838
1 -0.91107023 0.87088853
1 -0.89118874 0.87039411
1 -0.8670103 0.86829692
1 -0.85176158 0.87197912
1 -0.82986552 0.87093103
1 -0.8127355 0.86914313
1 -0.78795981 0.87173331
1 -0.7681914 0.87064463
1 -0.75028872 0.8728838
1 -0.73292476 0.87302524
1 -0.7106843 0.87310117
1 -0.69048065 0.86807203
1 -0.66962516 0.86815339
1 -0.65142524 0.86843556
1 -0.62864029 0.86369729
1 -0.60601872 0.87245756
1 -0.59245318 0.86609125
1 -0.5710324 0.86612183
1 -0.5484376 0.87117672
1 -0.53436387 0.86681169
1 -0.51053435 0.86708105
1 -0.48960033 0.86991781
1 -0.47250673 0.86769462
1 -0.45028791 0.86963809
1 -0.42905274 0.87101716
1 -0.41179234 0.87226838
1 -0.38642943 0.8708784
1 -0.36688718 0.8733182
1 -0.34976465 0.87305534
1 -0.32855719 0.86901808
1 -0.31016722 0.8693524
1 -0.29307395 0.86801982
1 -0.271501 0.86992955
1 -0.24984702 0.87005639
1 -0.22782926 0.86692691
1 -0.21043581 0.87034327
1 -0.18796988 0.87288672
1 -0.16805571 0.86884981
1 -0.15147276 0.87297672
1 -0.12934561 0.8676613
1 -0.11012492 0.86776686
1 -0.090640984 0.86947936
1 -0.069495067 0.86946136
1 -0.053092957 0.87341863
1 -0.027908394 0.877029
1 -0.010273695 0.86659539
1 0.0084997024 0.86912674
1 0.029970551 0.87190259
1 0.051093135 0.86935288
1 0.071185112 0.86971718
1 0.088678896 0.87061286
1 0.11091406 0.86651725
1 0.12636733 0.86883157
1 0.1484528 0.86763376
1 0.16815779 0.86618543
1 0.18959041 0.86815864
1 0.20997363 0.86924011
1 0.23238836 0.87125391
1 0.25341955 0.87206578
1 0.27248827 0.86972541
1 0.28968471 0.86870509
1 0.31112847 0.87232095
1 0.32946104 0.8691662
1 0.3507424 0.87110144
1 0.37338942 0.86697245
1 0.38943154 0.86980736
1 0.41156912 0.87145752
1 0.43164501 0.87341803
1 0.45160913 0.86680084
1 0.47096598 0.86980748
1 0.48624811 0.86984318
1 0.50809461 0.86444014
1 0.53046817 0.87103242
1 0.5511294 0.86737502
1 0.56912565 0.86878884
1 0.58948708 0.8704924
1 0.60633087 0.8670969
1 0.6330446 0.86433887
1 0.64861274 0.86968768
1 0.67136943 0.86868584
1 0.69125426 0.86983675
1 0.71101606 0.87223321
1 0.73214436 0.86707145
1 0.75038636 0.86859649
1 0.77130836 0.87010527
1 0.79272604 0.86937284
1 0.80768424 0.86858612
1 0.83027929 0.86919463
1 0.84789032 0.86892778
1 0.86660278 0.8727079
1 0.89172643 0.87063599
1 0.91111028 0.87180781
1 0.93039495 0.86989754
1 0.95469445 0.86834025
1 0.97358853 0.87086368
1 0.99098396 0.86772269
1 -0.9873991 0.89053166
1 -0.96919519 0.89036316
1 -0.94991004 0.89200264
1 -0.92818731 0.88883084
1 -0.91015083 0.89328873
1 -0.88922614 0.89379269
1 -0.86744004 0.88988543
1 -0.85122246 0.89223653
1 -0.82881701 0.89029348
1 -0.81186849 0.88809776
1 -0.78954518 0.88884205
1 -0.76999235 0.88629341
1 -0.74888766 0.88702774
1 -0.72994596 0.89111656
1 -0.71508968 0.89034951
1 -0.68778747 0.890248
1 -0.66659939 0.88633496
1 -0.65164655 0.89004678
1 -0.62882173 0.88978213
1 -0.60774165 0.89123613
1 -0.59020388 0.89238882
1 -0.56815708 0.88752156
1 -0.54957581 0.88828897
1 -0.52626741 0.88300622
1 -0.50871557 0.88936079
1 -0.48781478 0.89251393
1 -0.47009596 0.89292312
1 -0.44837937 0.88796633
1 -0.42934927 0.89204073
1 -0.40993258 0.8892228
1 -0.38930178 0.89103067
1 -0.36671263 0.89079136
1 -0.35371438 0.88858026
1 -0.33034843 0.89382601
1 -0.31192765 0.89242327
1 -0.29108855 0.89091885
1 -0.26858371 0.88803947
1 -0.25214052 0.89183366
1 -0.22963181 0.89058656
1 -0.20766386 0.89123601
1 -0.18740284 0.88887972
1 -0.17015575 0.88926274
1 -0.1443616 0.88878578
1 -0.13173315 0.88959759
1 -0.10593971 0.89132613
1 -0.085742131 0.88942975
1 -0.069847316 0.89029545
1 -0.050458577 0.89056414
1 -0.030080914 0.88978183
1 -0.008503342 0.8936438
1 0.0085434914 0.89182675
1 0.032776304 0.88958549
1 0.049858466 0.88870937
1 0.068498753 0.89064121
1 0.086304344 0.88931859
1 0.10862193 0.88796514
1 0.1260941 0.89254069
1 0.15094423 0.88987064
1 0.17028308 0.89055377
1 0.19094151 0.88922852
1 0.20998484 0.88927597
1 0.23311631 0.89282507
1 0.24903411 0.88740861
1 0.27289507 0.88853592
1 0.29268974 0.88838148
1 0.30687356 0.88788688
1 0.3320404 0.88969529
1 0.34841362 0.88813865
1 0.37174347 0.8872509
1 0.38930076 0.88884467
1 0.41139874 0.89280117
1 0.43269658 0.88946927
1 0.45111063 0.88956714
1 0.47285375 0.88898438
1 0.49235019 0.88813198
1 0.50926661 0.89323771
1 0.5304184 0.89102846
1 0.5517326 0.88934958
1 0.56818867 0.88697666
1 0.58879739 0.88745451
1 0.6084165 0.88979125
1 0.62793398 0.88930899
1 0.64853567 0.88928205
1 0.66742033 0.89267445
1 0.68852448 0.89114875
1 0.70984572 0.89185047
1 0.72724432 0.888309
1 0.74901283 0.88930404
1 0.76560611 0.89023089
1 0.79067153 0.88705343
1 0.80994713 0.89153689
1 0.8350386 0.88780618
1 0.84863561 0.88993198
1 0.87222499 0.89134347
1 0.88874233 0.88788694
1 0.91217983 0.89081699
1 0.93054944 0.88999414
1 0.94824493 0.88942975
1 0.97413051 0.88850647
1 0.98865688 0.88637882
1 -0.99144661 0.90970635
1 -0.97166282 0.90784496
1 -0.94837856 0.91107118
1 -0.92990327 0.9080323
1 -0.91010392 0.91394073
1 -0.89113587 0.90671158
1 -0.87219745 0.90900379
1 -0.85170519 0.91086709
1 -0.83070487 0.90899646
1 -0.80907226 0.91114235
1 -0.78868085 0.91401154
1 -0.77064502 0.91159272
1 -0.74998993 0.90811336
1 -0.72849411 0.90576887
1 -0.71090859 0.90929669
1 -0.69143867 0.91176635
1 -0.67156261 0.90842211
1 -0.64951116 0.90649414
1 -0.63015288 0.90852404
1 -0.60935986 0.91170388
1 -0.59046137 0.90886253
1 -0.57098836 0.91046065
1 -0.55122429 0.91234696
1 -0.53189594 0.90868062
1 -0.50908178 0.91103804
1 -0.48943099 0.91069341
1 -0.46834478 0.90867978
1 -0.4519088 0.9111951
1 -0.42791569 0.91070253
1 -0.40915161 0.90993774
1 -0.39288482 0.90872926
1 -0.37080947 0.90887684
1 -0.34939325 0.91134578
1 -0.32738876 0.90963405
1 -0.306126 0.91219813
1 -0.28949451 0.90674353
1 -0.26758632 0.90970653
1 -0.24771819 0.9115833
1 -0.22929679 0.91254449
1 -0.21070738 0.9127391
1 -0.19101781 0.90835565
1 -0.17084561 0.91146892
1 -0.14848197 0.91110981
1 -0.13355775 0.91241294
1 -0.11176418 0.90899527
1 -0.091426454 0.90938306
1 -0.073816709 0.91007316
1 -0.050747991 0.91078699
1 -0.028896481 0.91019237
1 -0.014717375 0.91345137
1 0.0077566667 0.9113884
1 0.03232497 0.912184
1 0.050136618 0.90868825
1 0.066372916 0.90864182
1 0.089419723 0.90918815
1 0.11072701 0.90932137
1 0.1305187 0.90898693
1 0.14975938 0.90840214
1 0.16975477 0.90927368
1 0.18847981 0.90850323
1 0.21175984 0.91083527
1 0.22954953 0.90700072
1 0.251955 0.91017878
1 0.26929635 0.90713066
1 0.28606081 0.91490793
1 0.30914265 0.90876085
1 0.32924283 0.9107734
1 0.35067374 0.90952373
1 0.37024376 0.90781176
1 0.38963273 0.90932566
1 0.41281557 0.91150951
1 0.43282056 0.91059154
