# .PCD v0.7 - Point Cloud Data file format
VERSION 0.7
FIELDS x y z rgb
SIZE 4 4 4 4
TYPE F F F F
COUNT 1 1 1 1
WIDTH 1031
HEIGHT 1
VIEWPOINT 0 0 0 1 0 0 0
POINTS 1031
DATA ascii
-0.76834285 -0.46718135 2.3055718 1.8067444e-38
-0.74823725 -0.46621925 2.3060002 1.8067444e-38
-0.72902465 -0.46373907 2.3099999 1.8067444e-38
-0.70883095 -0.46469629 2.3109999 1.8067444e-38
-0.6907236 -0.46520942 2.3106 1.8067444e-38
-0.67810082 -0.46759558 2.309 1.8067444e-38
-0.64928138 -0.46963903 2.3083849 1.8067444e-38
-0.63191658 -0.46784815 2.3103335 1.8067444e-38
-0.61077482 -0.4636448 2.3095338 1.8067444e-38
-0.59107411 -0.46461478 2.311667 1.8067444e-38
-0.5731914 -0.46488494 2.309 1.8067444e-38
-0.54831028 -0.46227849 2.3055716 1.8067444e-38
-0.52938128 -0.46499851 2.3042004 1.8067444e-38
-0.51028007 -0.46478623 2.3031335 1.8067444e-38
-0.4890762 -0.46635202 2.310739 1.8067444e-38
-0.46960253 -0.47039488 2.30932 1.8067444e-38
-0.45088348 -0.47467336 2.309 1.8067444e-38
-0.42909589 -0.47647756 2.3039093 1.8067444e-38
-0.40827855 -0.47734061 2.3170002 1.8067444e-38
-0.38999742 -0.47734061 2.3170002 1.8067444e-38
-0.36994371 -0.47746366 2.3143337 1.8067444e-38
-0.35140398 -0.47734061 2.3170002 1.8067444e-38
-0.33921653 -0.47734061 2.3170002 1.8067444e-38
-0.2884497 -0.47775072 2.3081112 1.8067444e-38
-0.27357641 -0.47758669 2.311667 1.8067444e-38
-0.24811684 -0.47807878 2.3010001 1.8067444e-38
-1.2479999 -0.44571656 2.3110001 1.8067444e-38
-1.2269267 -0.44278729 2.3078573 1.8067444e-38
-1.2082615 -0.44863182 2.3090003 1.8067444e-38
-1.1886185 -0.45013082 2.3124292 1.8067444e-38
-1.1699854 -0.44926867 2.3106 1.8067444e-38
-1.1505415 -0.44766054 2.3106 1.8067444e-38
-1.1287607 -0.45239502 2.3127337 1.8067444e-38
-1.1113259 -0.44940144 2.3134446 1.8067444e-38
-1.0917208 -0.45034871 2.3129997 1.8067444e-38
-1.0730261 -0.45558172 2.3138003 1.8067444e-38
-1.0521834 -0.45757729 2.3070004 1.8067444e-38
-1.0299271 -0.45549107 2.3154001 1.8067444e-38
-1.0083628 -0.45717463 2.3143337 1.8067444e-38
-0.99239248 -0.45755529 2.3074002 1.8067444e-38
-0.92015022 -0.45702824 2.3170002 1.8067444e-38
-0.90999407 -0.45702824 2.3170002 1.8067444e-38
-0.89374411 -0.45702824 2.3170002 1.8067444e-38
-0.72515148 -0.45702824 2.3170002 1.8067444e-38
-0.61198264 -0.45586756 2.3170004 1.8067444e-38
-0.59515238 -0.45702824 2.3170002 1.8067444e-38
-0.52352518 -0.45732105 2.311667 1.8067444e-38
-0.51096523 -0.45741865 2.3098891 1.8067444e-38
-0.48546559 -0.45702824 2.3170002 1.8067444e-38
-0.47530937 -0.45702824 2.3170002 1.8067444e-38
-1.2446185 -0.43773457 2.3010001 1.8067444e-38
-0.32928738 -0.48063689 2.3330002 1.8067444e-38
-0.30883476 -0.48063689 2.3330002 1.8067444e-38
-0.28020108 -0.48063689 2.3330002 1.8067444e-38
-0.26588422 -0.48063689 2.3330002 1.8067444e-38
-0.25361267 -0.48063689 2.3330002 1.8067444e-38
-1.0512654 -0.46018425 2.3330002 1.8067444e-38
-0.98990744 -0.46018425 2.3330002 1.8067444e-38
-0.9715001 -0.46018425 2.3330002 1.8067444e-38
-0.95036572 -0.46086597 2.3330002 1.8067444e-38
-0.93468541 -0.46018428 2.3330002 1.8067444e-38
-0.88559902 -0.46222949 2.3330002 1.8067444e-38
-0.86787355 -0.46768355 2.3330002 1.8067444e-38
-0.84841245 -0.46501854 2.3330002 1.8067444e-38
-0.82924068 -0.46200228 2.3330002 1.8067444e-38
-0.8099243 -0.46222949 2.3330002 1.8067444e-38
-0.79015344 -0.46495652 2.3330002 1.8067444e-38
-0.76931125 -0.46310607 2.3330002 1.8067444e-38
-0.75236475 -0.46135297 2.3330002 1.8067444e-38
-0.73015898 -0.46018425 2.3330002 1.8067444e-38
-0.70970637 -0.46018425 2.3330002 1.8067444e-38
-0.68866938 -0.4625217 2.3330002 1.8067444e-38
-0.66821682 -0.47070274 2.3330002 1.8067444e-38
-0.64988238 -0.46274084 2.3330002 1.8067444e-38
-0.63198638 -0.46018428 2.3330002 1.8067444e-38
-0.58699059 -0.46120685 2.3330002 1.8067444e-38
-0.56960583 -0.46325213 2.3330002 1.8067444e-38
-0.55017585 -0.46263859 2.3330002 1.8067444e-38
-0.53585899 -0.46018425 2.3330002 1.8067444e-38
-0.50108951 -0.46018425 2.3330002 1.8067444e-38
-0.496999 -0.46018425 2.3330002 1.8067444e-38
-0.46632007 -0.46325219 2.3330002 1.8067444e-38
-0.44995797 -0.47041056 2.3330002 1.8067444e-38
-0.43032342 -0.47000152 2.3330002 1.8067444e-38
-0.41218877 -0.4721832 2.3330004 1.8067444e-38
-0.39200878 -0.47586459 2.3330002 1.8067444e-38
-0.36843961 -0.47537762 2.3330002 1.8067444e-38
-0.34871739 -0.47347844 2.3330002 1.8067444e-38
-0.32987177 -0.47274798 2.3330002 1.8067444e-38
-0.30556235 -0.47572824 2.3330002 1.8067444e-38
-0.28838211 -0.4745011 2.3330002 1.8067444e-38
-0.26997477 -0.47654635 2.3330002 1.8067444e-38
-0.25974843 -0.47654635 2.3330002 1.8067444e-38
-1.2578369 -0.44382215 2.3330002 1.8067444e-38
-1.2230675 -0.44382215 2.3330002 1.8067444e-38
-1.2087506 -0.44382215 2.3330002 1.8067444e-38
-1.1876162 -0.4445039 2.3330002 1.8067444e-38
-1.1698906 -0.44382215 2.3330002 1.8067444e-38
-1.1504607 -0.44689006 2.3330002 1.8067444e-38
-1.1371664 -0.44791269 2.3330002 1.8067444e-38
-1.102397 -0.44382215 2.3330002 1.8067444e-38
-1.0887618 -0.44791263 2.3330002 1.8067444e-38
-1.0696728 -0.45200315 2.3330002 1.8067444e-38
-1.0492201 -0.45323035 2.3330002 1.8067444e-38
-1.0270145 -0.44995797 2.3330002 1.8067444e-38
-1.0085706 -0.45123619 2.3330002 1.8067444e-38
-0.98786229 -0.45375633 2.3330002 1.8067444e-38
-0.97081828 -0.45268497 2.3330002 1.8067444e-38
-0.95155877 -0.4545598 2.3330002 1.8067444e-38
-0.92957222 -0.45302579 2.3330002 1.8067444e-38
-0.9101423 -0.45200321 2.3330004 1.8067444e-38
-0.89255297 -0.45282131 2.3330002 1.8067444e-38
-0.74447584 -0.45609373 2.3330002 1.8067444e-38
-0.72924995 -0.45427573 2.3330002 1.8067444e-38
-0.71145952 -0.45492506 2.3330002 1.8067444e-38
-0.64542669 -0.4543407 2.3330002 1.8067444e-38
-0.62871397 -0.45527562 2.3330002 1.8067444e-38
-0.60999978 -0.45353717 2.3330002 1.8067444e-38
-0.59619427 -0.45507109 2.3330002 1.8067444e-38
-0.52767795 -0.45609373 2.3330002 1.8067444e-38
-0.50927061 -0.45609376 2.3330002 1.8067444e-38
-0.48940232 -0.45492506 2.3330002 1.8067444e-38
-0.47654635 -0.45609373 2.3330002 1.8067444e-38
-1.2473835 -0.43745911 2.3330002 1.8067444e-38
-1.2287728 -0.4339188 2.3330002 1.8067444e-38
-1.2091812 -0.4339188 2.3330002 1.8067444e-38
-1.188298 -0.43564111 2.3330004 1.8067444e-38
-1.1713517 -0.4373942 2.3330002 1.8067444e-38
-1.1505743 -0.4379136 2.3330002 1.8067444e-38
-1.1307899 -0.43467864 2.3330002 1.8067444e-38
-1.1111624 -0.43593329 2.3330002 1.8067444e-38
-1.0952384 -0.43870899 2.3330002 1.8067444e-38
-0.88343543 -0.46539953 2.3490002 1.8067444e-38
-0.8726241 -0.4648847 2.3490002 1.8067444e-38
-0.85666466 -0.46334025 2.3490002 1.8067444e-38
-0.80724168 -0.46334025 2.3490002 1.8067444e-38
-0.78870803 -0.46334025 2.3490002 1.8067444e-38
-0.77635235 -0.46334025 2.3490002 1.8067444e-38
-0.68327248 -0.46663514 2.3490002 1.8067444e-38
-0.67091668 -0.4658114 2.3490005 1.8067444e-38
-0.57042331 -0.46334025 2.3490002 1.8067444e-38
-0.55600828 -0.46334025 2.3490002 1.8067444e-38
-0.46334025 -0.46334025 2.3490002 1.8067444e-38
-0.45006922 -0.4656283 2.3490002 1.8067444e-38
-0.43348056 -0.46436989 2.3490002 1.8067444e-38
-0.40803364 -0.46863559 2.3490002 1.8067444e-38
-0.38920584 -0.47363672 2.3490005 1.8067444e-38
-0.36912775 -0.47209224 2.3490002 1.8067444e-38
-0.35030809 -0.46700117 2.3490002 1.8067444e-38
-0.33079687 -0.46596116 2.3490005 1.8067444e-38
-0.31146765 -0.4710626 2.3490002 1.8067444e-38
-0.29035988 -0.4695181 2.3490005 1.8067444e-38
-0.27238792 -0.47195184 2.3490005 1.8067444e-38
-0.2560384 -0.47844172 2.3490005 1.8067444e-38
-1.0873051 -0.44480664 2.3490002 1.8067444e-38
-1.0684283 -0.44652271 2.3490005 1.8067444e-38
-1.0504667 -0.44640833 2.3490002 1.8067444e-38
-1.0322191 -0.4442918 2.3490002 1.8067444e-38
-1.0088649 -0.44649151 2.3490005 1.8067444e-38
-0.99079317 -0.44741505 2.3490005 1.8067444e-38
-0.96960878 -0.44623229 2.3490007 1.8067444e-38
-0.95091677 -0.44940045 2.3490007 1.8067444e-38
-0.92948872 -0.44536835 2.3490005 1.8067444e-38
-0.9102062 -0.44480664 2.3490002 1.8067444e-38
-0.89279586 -0.44911242 2.3490005 1.8067444e-38
-0.86696112 -0.45922169 2.3490005 1.8067444e-38
-0.84819871 -0.45693356 2.3490002 1.8067444e-38
-0.82989395 -0.45622635 2.3490005 1.8067444e-38
-0.80930102 -0.45922166 2.3490002 1.8067444e-38
-0.78716356 -0.45767716 2.3490002 1.8067444e-38
-0.76961285 -0.45547751 2.3490005 1.8067444e-38
-0.7516408 -0.45469126 2.3490005 1.8067444e-38
-0.73196322 -0.44915402 2.3490002 1.8067444e-38
-0.70908213 -0.45510313 2.3490002 1.8067444e-38
-0.69031978 -0.4573912 2.3490002 1.8067444e-38
-0.66858286 -0.45784879 2.3490002 1.8067444e-38
-0.64730352 -0.45235738 2.3490002 1.8067444e-38
-0.63137829 -0.45263195 2.3490002 1.8067444e-38
-0.61160916 -0.45098454 2.3490002 1.8067444e-38
-0.59238911 -0.45647594 2.3490002 1.8067444e-38
-0.54688859 -0.45745653 2.3490002 1.8067444e-38
-0.52982593 -0.45627987 2.3490002 1.8067444e-38
-0.50864464 -0.45510313 2.3490002 1.8067444e-38
-0.48969918 -0.45263195 2.3490002 1.8067444e-38
-0.47098908 -0.45745659 2.3490002 1.8067444e-38
-0.44892523 -0.45716241 2.3490002 1.8067444e-38
-0.43245092 -0.45716235 2.3490002 1.8067444e-38
-0.34596074 -0.45922166 2.3490002 1.8067444e-38
-0.33566427 -0.45922169 2.3490005 1.8067444e-38
-1.2652867 -0.43509856 2.3490002 1.8067444e-38
-1.2503324 -0.4283323 2.3490005 1.8067444e-38
-1.2293962 -0.42421374 2.3490005 1.8067444e-38
-1.2101762 -0.42764589 2.3490002 1.8067444e-38
-1.1902696 -0.43039161 2.3490002 1.8067444e-38
-1.1707855 -0.43355978 2.3490007 1.8067444e-38
-1.1536143 -0.43080351 2.3490005 1.8067444e-38
-1.1305503 -0.42874417 2.3490002 1.8067444e-38
-1.1092085 -0.43151489 2.3490005 1.8067444e-38
-1.091718 -0.43686366 2.3490002 1.8067444e-38
-1.0749493 -0.43862876 2.3490002 1.8067444e-38
-1.0461192 -0.43862876 2.3490002 1.8067444e-38
-1.0301598 -0.43708426 2.3490002 1.8067444e-38
-1.0144063 -0.43698135 2.3490002 1.8067444e-38
-0.98639989 -0.43656945 2.3490002 1.8067444e-38
-0.97147006 -0.43708432 2.3490002 1.8067444e-38
-0.9205026 -0.43862876 2.3490002 1.8067444e-38
-0.90814686 -0.43862876 2.3490005 1.8067444e-38
-0.89990973 -0.43862876 2.3490002 1.8067444e-38
-1.2417519 -0.41803586 2.3490002 1.8067444e-38
-1.2280233 -0.41803586 2.3490005 1.8067444e-38
-0.88530624 -0.46234962 2.3650002 1.8067444e-38
-0.67797452 -0.46234962 2.365 1.8067444e-38
-0.58260196 -0.46234962 2.365 1.8067444e-38
-0.57016206 -0.46234962 2.365 1.8067444e-38
-0.46234962 -0.46442294 2.365 1.8067444e-38
-0.4222655 -0.46373186 2.3650002 1.8067444e-38
-0.40936485 -0.46511406 2.365 1.8067444e-38
-0.38840133 -0.46926066 2.365 1.8067444e-38
-0.36956868 -0.46805122 2.365 1.8067444e-38
-0.35730159 -0.46373186 2.3650002 1.8067444e-38
-0.32447407 -0.4633863 2.365 1.8067444e-38
-0.30938491 -0.46465334 2.365 1.8067444e-38
-0.29026431 -0.46442294 2.365 1.8067444e-38
-0.27436888 -0.46649629 2.365 1.8067444e-38
-1.0684493 -0.44299871 2.365 1.8067444e-38
-1.0594648 -0.44161645 2.365 1.8067444e-38
-1.0076319 -0.44161645 2.365 1.8067444e-38
-0.96409225 -0.44161645 2.365 1.8067444e-38
-0.9525739 -0.44345942 2.365 1.8067444e-38
-0.93195581 -0.44161645 2.365 1.8067444e-38
-0.90189272 -0.44161645 2.365 1.8067444e-38
-0.88945287 -0.45104069 2.365 1.8067444e-38
-0.86798811 -0.45308065 2.3650002 1.8067444e-38
-0.85024828 -0.44953275 2.365 1.8067444e-38
-0.83139992 -0.45163748 2.365 1.8067444e-38
-0.81066692 -0.45405632 2.3650002 1.8067444e-38
-0.78971535 -0.44903675 2.3650005 1.8067444e-38
-0.76920044 -0.44742176 2.3650002 1.8067444e-38
-0.74892807 -0.44668457 2.365 1.8067444e-38
-0.72951132 -0.44635549 2.3650002 1.8067444e-38
-0.71252984 -0.45060083 2.365 1.8067444e-38
-0.69137138 -0.45150459 2.365 1.8067444e-38
-0.66968125 -0.45447102 2.365 1.8067444e-38
-0.64894813 -0.4478364 2.365 1.8067444e-38
-0.63080657 -0.44887307 2.365 1.8067444e-38
-0.61301064 -0.4492186 2.365 1.8067444e-38
-0.5924502 -0.45561138 2.365 1.8067444e-38
-0.568385 -0.45376015 2.3650002 1.8067444e-38
-0.55090988 -0.45109448 2.3650002 1.8067444e-38
-0.53025073 -0.45250136 2.365 1.8067444e-38
-0.51092452 -0.45227924 2.3650002 1.8067444e-38
-0.49068493 -0.45129192 2.365 1.8067444e-38
-0.4717738 -0.45367935 2.365 1.8067444e-38
-0.44931737 -0.45287162 2.3650002 1.8067444e-38
-0.42917654 -0.45612967 2.365 1.8067444e-38
-0.34624392 -0.45820302 2.3650002 1.8067444e-38
-0.32965735 -0.45820299 2.365 1.8067444e-38
-0.30892417 -0.45820299 2.365 1.8067444e-38
-0.29648429 -0.45820299 2.365 1.8067444e-38
-1.2684551 -0.4250299 2.365 1.8067444e-38
-1.25332 -0.42191994 2.365 1.8067444e-38
-1.2263668 -0.42191994 2.365 1.8067444e-38
-1.2105206 -0.42799181 2.3650002 1.8067444e-38
-1.1887015 -0.42917654 2.365 1.8067444e-38
-1.1732011 -0.42621467 2.3650002 1.8067444e-38
-1.152468 -0.42680705 2.3650002 1.8067444e-38
-1.1299577 -0.42751789 2.365 1.8067444e-38
-1.1079804 -0.42917657 2.365 1.8067444e-38
-1.0892453 -0.43483108 2.365 1.8067444e-38
-1.0729413 -0.43643314 2.365 1.8067444e-38
-1.0505793 -0.43628505 2.3650002 1.8067444e-38
-1.0283651 -0.43435985 2.365 1.8067444e-38
-1.0097053 -0.43539646 2.365 1.8067444e-38
-0.98897213 -0.4333232 2.365 1.8067444e-38
-0.97031224 -0.43643317 2.365 1.8067444e-38
-0.92677253 -0.43746981 2.3650002 1.8067444e-38
-0.91225928 -0.43746981 2.365 1.8067444e-38
-0.7837137 -0.43746981 2.365 1.8067444e-38
-1.25021 -0.41673666 2.365 1.8067444e-38
-1.2300694 -0.41555187 2.3650002 1.8067444e-38
-0.40882114 -0.463092 2.3810003 1.8067444e-38
-0.39065433 -0.46483526 2.3810005 1.8067444e-38
-0.37185872 -0.46281457 2.3852506 1.8067444e-38
-0.35693571 -0.46130288 2.381 1.8067444e-38
-0.28805339 -0.46130288 2.381 1.8067444e-38
-0.27135462 -0.47069591 2.381 1.8067444e-38
-1.2878908 -0.44042945 2.381 1.8067444e-38
-1.0708071 -0.44042945 2.381 1.8067444e-38
-0.96435261 -0.44042945 2.381 1.8067444e-38
-0.94974118 -0.44042945 2.3810003 1.8067444e-38
-0.90455931 -0.44147766 2.3866668 1.8067444e-38
-0.89013809 -0.44676819 2.3884377 1.8067444e-38
-0.8708722 -0.44483906 2.3847783 1.8067444e-38
-0.84895355 -0.44261292 2.3825459 1.8067444e-38
-0.82845521 -0.44523302 2.3844004 1.8067444e-38
-0.80988926 -0.44460413 2.3810003 1.8067444e-38
-0.7942341 -0.44147313 2.381 1.8067444e-38
-0.76866418 -0.44199497 2.3810003 1.8067444e-38
-0.75053531 -0.44251981 2.384778 1.8067444e-38
-0.72871429 -0.4434475 2.3847783 1.8067444e-38
-0.71034849 -0.44489002 2.3825459 1.8067444e-38
-0.68999797 -0.44519377 2.3841877 1.8067444e-38
-0.67182893 -0.44634625 2.3844006 1.8067444e-38
-0.64843845 -0.44261289 2.3825459 1.8067444e-38
-0.63010085 -0.44450656 2.3895004 1.8067444e-38
-0.61095953 -0.44548827 2.3823082 1.8067444e-38
-0.59035701 -0.4481895 2.3817394 1.8067444e-38
-0.57080811 -0.44396189 2.3810005 1.8067444e-38
-0.54800785 -0.44396198 2.3810005 1.8067444e-38
-0.52942961 -0.44585827 2.3832672 1.8067444e-38
-0.51088798 -0.44658026 2.3890002 1.8067444e-38
-0.48953933 -0.44595006 2.3834291 1.8067444e-38
-0.46898249 -0.44697437 2.3854737 1.8067444e-38
-0.44932485 -0.45002306 2.3895001 1.8067444e-38
-0.43019369 -0.45188275 2.3910003 1.8067444e-38
-0.41033024 -0.4500953 2.3880835 1.8067444e-38
-0.38957882 -0.44947803 2.3838336 1.8067444e-38
-0.37106064 -0.45041367 2.3939521 1.8067444e-38
-0.35073191 -0.45165345 2.3944583 1.8067444e-38
-0.33001065 -0.45108879 2.3951666 1.8067444e-38
-0.30963671 -0.4494758 2.3826194 1.8067444e-38
-0.29191115 -0.45019284 2.3818505 1.8067444e-38
-1.3054951 -0.42927876 2.398 1.8067444e-38
-1.2890837 -0.42730898 2.3810003 1.8067444e-38
-1.2231832 -0.4237307 2.381 1.8067444e-38
-1.2085718 -0.42581803 2.3810003 1.8067444e-38
-1.1910381 -0.42456564 2.3810003 1.8067444e-38
-1.1709995 -0.4237307 2.3810003 1.8067444e-38
-1.1492488 -0.42474723 2.3844004 1.8067444e-38
-1.1292528 -0.42492348 2.3810003 1.8067444e-38
-1.1083665 -0.42609665 2.3912003 1.8067444e-38
-1.0902715 -0.42817283 2.3942223 1.8067444e-38
-1.0711718 -0.43123305 2.3907144 1.8067444e-38
-1.0504525 -0.4328236 2.3909168 1.8067444e-38
-1.028832 -0.42941809 2.3895004 1.8067444e-38
-1.0103779 -0.42778796 2.3895001 1.8067444e-38
-0.99113762 -0.43046492 2.3913891 1.8067444e-38
-0.96936369 -0.43435296 2.3919289 1.8067444e-38
-0.94984263 -0.43456793 2.3909168 1.8067444e-38
-0.92983937 -0.43325967 2.3929999 1.8067444e-38
-0.91058892 -0.43394518 2.3951666 1.8067444e-38
-0.88084137 -0.43936956 2.398 1.8067444e-38
-0.8703301 -0.43936956 2.398 1.8067444e-38
-0.85140985 -0.43779284 2.398 1.8067444e-38
-0.83038741 -0.43750089 2.398 1.8067444e-38
-0.80950344 -0.43596306 2.39375 1.8067444e-38
-0.7907021 -0.43644187 2.3912005 1.8067444e-38
-0.77292603 -0.43866882 2.398 1.8067444e-38
-0.74882025 -0.43642646 2.3980002 1.8067444e-38
-0.72982997 -0.43621621 2.3980002 1.8067444e-38
-0.70752275 -0.43750086 2.398 1.8067444e-38
-0.69584364 -0.4372673 2.398 1.8067444e-38
-0.66430998 -0.43936956 2.398 1.8067444e-38
-0.65169644 -0.43796802 2.398 1.8067444e-38
-0.63025355 -0.43852863 2.398 1.8067444e-38
-0.60965157 -0.43936956 2.398 1.8067444e-38
-0.59073132 -0.43936959 2.398 1.8067444e-38
-0.57181108 -0.43936956 2.398 1.8067444e-38
-0.54777771 -0.43623549 2.3895001 1.8067444e-38
-0.53110242 -0.4387466 2.3945999 1.8067444e-38
-0.51925492 -0.43936956 2.398 1.8067444e-38
-0.48939317 -0.43687791 2.395875 1.8067444e-38
-0.47484562 -0.4379057 2.3945999 1.8067444e-38
-0.40363136 -0.43936956 2.398 1.8067444e-38
-0.38856527 -0.43621618 2.3980002 1.8067444e-38
-0.36999545 -0.4372673 2.398 1.8067444e-38
-0.3521263 -0.43936956 2.398 1.8067444e-38
-0.32892758 -0.43300852 2.3970001 1.8067444e-38
-0.31051499 -0.43442833 2.3955717 1.8067444e-38
-0.29640275 -0.43416739 2.381 1.8067444e-38
-1.3033929 -0.41204035 2.398 1.8067444e-38
-1.2892553 -0.41351864 2.3904448 1.8067444e-38
-1.2719153 -0.41256377 2.3876114 1.8067444e-38
-1.2511344 -0.4098607 2.3882856 1.8067444e-38
-1.2282521 -0.41305807 2.3904448 1.8067444e-38
-1.209341 -0.4149892 2.3920503 1.8067444e-38
-1.1902021 -0.41422391 2.3900001 1.8067444e-38
-1.1709706 -0.41395941 2.3911998 1.8067444e-38
-1.1510987 -0.41670734 2.3934672 1.8067444e-38
-1.1286765 -0.41769898 2.3923335 1.8067444e-38
-1.1123137 -0.41895157 2.3895001 1.8067444e-38
-1.0931683 -0.41834709 2.398 1.8067444e-38
-0.90402305 -0.44248435 2.4150002 1.8067444e-38
-0.896613 -0.4435429 2.4150002 1.8067444e-38
-0.69019091 -0.44248435 2.4150002 1.8067444e-38
-0.67748797 -0.44248435 2.4150002 1.8067444e-38
-0.64573073 -0.44248435 2.4150002 1.8067444e-38
-0.62879354 -0.44248435 2.4150002 1.8067444e-38
-0.51235032 -0.44248435 2.4150002 1.8067444e-38
-0.46577299 -0.44460148 2.4150002 1.8067444e-38
-0.44954151 -0.44671863 2.4150004 1.8067444e-38
-0.42917657 -0.44490397 2.4150002 1.8067444e-38
-0.4149614 -0.44248435 2.4150002 1.8067444e-38
-0.34932974 -0.44460148 2.4150002 1.8067444e-38
-1.1242067 -0.42131284 2.4150002 1.8067444e-38
-1.108681 -0.42272431 2.4150004 1.8067444e-38
-1.0869448 -0.42215973 2.4150002 1.8067444e-38
-1.06969 -0.42554712 2.4150002 1.8067444e-38
-1.0501064 -0.42766428 2.4150002 1.8067444e-38
-1.0310521 -0.42252266 2.4150002 1.8067444e-38
-1.0080659 -0.42252266 2.4150002 1.8067444e-38
-0.98719698 -0.42554715 2.4150004 1.8067444e-38
-0.96965474 -0.42554712 2.4150004 1.8067444e-38
-0.95150781 -0.42675695 2.4150004 1.8067444e-38
-0.93019885 -0.42400739 2.4150004 1.8067444e-38
-0.91095197 -0.42747182 2.4150004 1.8067444e-38
-0.89037919 -0.43636814 2.4150002 1.8067444e-38
-0.87014872 -0.43401578 2.4150007 1.8067444e-38
-0.84897709 -0.43031073 2.4150004 1.8067444e-38
-0.82943422 -0.43010718 2.4150007 1.8067444e-38
-0.81131405 -0.4279986 2.4150004 1.8067444e-38
-0.78892708 -0.43247601 2.4150004 1.8067444e-38
-0.76734918 -0.43236908 2.4150004 1.8067444e-38
-0.7488662 -0.42675695 2.4150004 1.8067444e-38
-0.72890455 -0.42978147 2.4150004 1.8067444e-38
-0.70985019 -0.4300839 2.4150004 1.8067444e-38
-0.69230801 -0.43507433 2.4150002 1.8067444e-38
-0.6692118 -0.43517059 2.4150004 1.8067444e-38
-0.64855361 -0.43613291 2.4150002 1.8067444e-38
-0.62785262 -0.43589768 2.4150002 1.8067444e-38
-0.61115068 -0.43683863 2.4150002 1.8067444e-38
-0.59068489 -0.43825004 2.4150002 1.8067444e-38
-0.56951332 -0.43613291 2.4150004 1.8067444e-38
-0.55136633 -0.43341088 2.4150002 1.8067444e-38
-0.53281605 -0.43754432 2.4150002 1.8067444e-38
-0.50769258 -0.4374032 2.4150002 1.8067444e-38
-0.48906165 -0.43401575 2.4150002 1.8067444e-38
-0.4749473 -0.43683863 2.4150004 1.8067444e-38
-0.40606937 -0.43655634 2.4150002 1.8067444e-38
-0.38955563 -0.43119287 2.4150002 1.8067444e-38
-0.37231597 -0.43341088 2.4150002 1.8067444e-38
-0.34630525 -0.43583047 2.4150002 1.8067444e-38
-0.32392395 -0.42978144 2.4150002 1.8067444e-38
-1.3071284 -0.40776309 2.4150002 1.8067444e-38
-1.2921672 -0.40578708 2.4150004 1.8067444e-38
-1.2745243 -0.40437564 2.4150002 1.8067444e-38
-1.2512356 -0.40691623 2.4150002 1.8067444e-38
-1.2300643 -0.40860996 2.4150002 1.8067444e-38
-1.2084693 -0.40437561 2.4150004 1.8067444e-38
-1.1901407 -0.40498054 2.4150002 1.8067444e-38
-1.1692718 -0.40498051 2.4150004 1.8067444e-38
-1.1519221 -0.40976474 2.4150004 1.8067444e-38
-1.1301347 -0.41453797 2.4150002 1.8067444e-38
-1.1088573 -0.41496137 2.4150002 1.8067444e-38
-1.0940959 -0.41378516 2.4150002 1.8067444e-38
-1.0310521 -0.41707858 2.4150004 1.8067444e-38
-1.0141149 -0.41707855 2.4150002 1.8067444e-38
-0.51808894 -0.44133502 2.4320002 1.8067444e-38
-0.46691966 -0.44346708 2.4320002 1.8067444e-38
-0.45169073 -0.44681746 2.4320004 1.8067444e-38
-0.42996407 -0.44204569 2.4320002 1.8067444e-38
-0.35178879 -0.44133502 2.4320002 1.8067444e-38
-1.0873471 -0.4200145 2.4320002 1.8067444e-38
-1.0707172 -0.42513141 2.4320002 1.8067444e-38
-1.0528079 -0.422573 2.4320002 1.8067444e-38
-1.0276496 -0.4200145 2.4320002 1.8067444e-38
-1.0105933 -0.4200145 2.4320002 1.8067444e-38
-0.99140483 -0.42001447 2.4320002 1.8067444e-38
-0.97008431 -0.42001447 2.4320002 1.8067444e-38
-0.95059127 -0.42123285 2.4320004 1.8067444e-38
-0.9295752 -0.4200145 2.4320002 1.8067444e-38
-0.90844852 -0.42815509 2.4319999 1.8067444e-38
-0.88967544 -0.42823818 2.4319999 1.8067444e-38
-0.87079155 -0.42610607 2.4320004 1.8067444e-38
-0.84926796 -0.42498931 2.4320002 1.8067444e-38
-0.83007944 -0.42143592 2.4320002 1.8067444e-38
-0.80875885 -0.42285722 2.4320002 1.8067444e-38
-0.79099184 -0.42641068 2.4319999 1.8067444e-38
-0.77251399 -0.42498931 2.4320002 1.8067444e-38
-0.75048274 -0.42108053 2.4320002 1.8067444e-38
-0.73129427 -0.42427865 2.4320002 1.8067444e-38
-0.70814633 -0.42549694 2.4320004 1.8067444e-38
-0.68865329 -0.43149477 2.4319999 1.8067444e-38
-0.66946477 -0.42996407 2.4320002 1.8067444e-38
-0.65112907 -0.43238041 2.4319999 1.8067444e-38
-0.62895578 -0.43067476 2.4319999 1.8067444e-38
-0.61000413 -0.43328059 2.4320002 1.8067444e-38
-0.59022349 -0.43316218 2.4319999 1.8067444e-38
-0.56925821 -0.43067476 2.4319999 1.8067444e-38
-0.54921693 -0.42768994 2.4319999 1.8067444e-38
-0.53133017 -0.43101141 2.4319997 1.8067444e-38
-0.51054478 -0.43215081 2.4319999 1.8067444e-38
-0.49165151 -0.431954 2.4320002 1.8067444e-38
-0.47757995 -0.43493888 2.4320002 1.8067444e-38
-0.42214656 -0.43707094 2.4320002 1.8067444e-38
-0.40978065 -0.43451247 2.4320002 1.8067444e-38
-0.36671317 -0.43493888 2.4320002 1.8067444e-38
-0.350936 -0.43365964 2.4320002 1.8067444e-38
-0.33615375 -0.42712137 2.4320002 1.8067444e-38
-1.3240051 -0.40722218 2.4320002 1.8067444e-38
-1.3101468 -0.40615615 2.4320002 1.8067444e-38
-1.2917198 -0.40417641 2.4320004 1.8067444e-38
-1.2685717 -0.40466371 2.4320002 1.8067444e-38
-1.2496878 -0.40600389 2.4320004 1.8067444e-38
-1.2314132 -0.40478557 2.4320004 1.8067444e-38
-1.2046101 -0.4029581 2.4320002 1.8067444e-38
-1.1896858 -0.40295807 2.4320002 1.8067444e-38
-1.1619691 -0.40295807 2.4320002 1.8067444e-38
-1.1491768 -0.40935427 2.4319999 1.8067444e-38
-1.1299882 -0.41468436 2.4320002 1.8067444e-38
-1.1107998 -0.40978065 2.4320002 1.8067444e-38
-1.0916113 -0.41255236 2.4320002 1.8067444e-38
-1.042574 -0.41575038 2.4320002 1.8067444e-38
-1.0297817 -0.41575041 2.4320002 1.8067444e-38
-1.0148574 -0.41575038 2.4320002 1.8067444e-38
-1.2446927 -0.39528272 2.4320002 1.8067444e-38
-1.2301949 -0.39442992 2.4319999 1.8067444e-38
-1.2100925 -0.39625737 2.4320004 1.8067444e-38
-1.1913439 -0.39537749 2.4320002 1.8067444e-38
-1.1698881 -0.39747569 2.4320004 1.8067444e-38
-0.46679577 -0.44173774 2.45 1.8067444e-38
-0.44985172 -0.44221497 2.45 1.8067444e-38
-0.43386233 -0.44030583 2.45 1.8067444e-38
-1.084656 -0.42312318 2.4500003 1.8067444e-38
-1.0696211 -0.42312315 2.45 1.8067444e-38
-0.9102518 -0.42398229 2.45 1.8067444e-38
-0.89135087 -0.42312318 2.45 1.8067444e-38
-0.86987251 -0.42312318 2.45 1.8067444e-38
-0.85054201 -0.42312315 2.45 1.8067444e-38
-0.80543751 -0.42312318 2.4500003 1.8067444e-38
-0.79040265 -0.42312315 2.45 1.8067444e-38
-0.77536786 -0.42312318 2.4500003 1.8067444e-38
-0.74529815 -0.42312318 2.4500003 1.8067444e-38
-0.73026329 -0.42312315 2.45 1.8067444e-38
-0.71093285 -0.42312315 2.45 1.8067444e-38
-0.68802261 -0.42670292 2.45 1.8067444e-38
-0.67155588 -0.42598695 2.45 1.8067444e-38
-0.65079349 -0.42885074 2.45 1.8067444e-38
-0.6293152 -0.4274188 2.45 1.8067444e-38
-0.60998464 -0.43064058 2.45 1.8067444e-38
-0.59065419 -0.42827797 2.45 1.8067444e-38
-0.56845987 -0.42598695 2.45 1.8067444e-38
-0.54984534 -0.42312315 2.45 1.8067444e-38
-0.52867389 -0.42435047 2.45 1.8067444e-38
-0.50903654 -0.4255096 2.45 1.8067444e-38
-0.48970601 -0.42956662 2.45 1.8067444e-38
-0.47037551 -0.43601018 2.45 1.8067444e-38
-0.44889718 -0.43601018 2.45 1.8067444e-38
-0.42956665 -0.43601015 2.45 1.8067444e-38
-0.4088043 -0.43314642 2.4500003 1.8067444e-38
-0.38691682 -0.43048722 2.45 1.8067444e-38
-0.36680216 -0.43075991 2.45 1.8067444e-38
-0.35207948 -0.42741883 2.4500005 1.8067444e-38
-0.33720982 -0.42741883 2.45 1.8067444e-38
-1.3270543 -0.40409949 2.45 1.8067444e-38
-1.3114671 -0.40250397 2.45 1.8067444e-38
-1.2890069 -0.40287217 2.45 1.8067444e-38
-1.2686536 -0.40236077 2.45 1.8067444e-38
-1.2178215 -0.40164483 2.45 1.8067444e-38
-1.1641257 -0.40379265 2.45 1.8067444e-38
-1.1487004 -0.40594044 2.4500003 1.8067444e-38
-1.1306809 -0.41207716 2.45 1.8067444e-38
-1.1122708 -0.40532687 2.45 1.8067444e-38
-1.0883378 -0.41514552 2.45 1.8067444e-38
-1.069621 -0.4188275 2.45 1.8067444e-38
-1.0502906 -0.41453183 2.45 1.8067444e-38
-1.0306532 -0.41330448 2.45 1.8067444e-38
-1.0094817 -0.4188275 2.45 1.8067444e-38
-0.98897964 -0.41570336 2.4500003 1.8067444e-38
-0.97062546 -0.41570339 2.4500003 1.8067444e-38
-0.94934231 -0.4188275 2.45 1.8067444e-38
-0.93001187 -0.4188275 2.45 1.8067444e-38
-0.88490736 -0.4188275 2.45 1.8067444e-38
-0.86987251 -0.4188275 2.45 1.8067444e-38
-0.85054201 -0.4188275 2.45 1.8067444e-38
-0.82942164 -0.41524777 2.4500003 1.8067444e-38
-0.814888 -0.41710925 2.45 1.8067444e-38
-0.76462865 -0.4188275 2.45 1.8067444e-38
-0.74959385 -0.4188275 2.45 1.8067444e-38
-0.73241127 -0.4188275 2.4500003 1.8067444e-38
-0.54769754 -0.4188275 2.4500003 1.8067444e-38
-0.53481048 -0.4188275 2.4500003 1.8067444e-38
-0.35654032 -0.4188275 2.45 1.8067444e-38
-1.3080306 -0.39520139 2.45 1.8067444e-38
-1.2924587 -0.39573827 2.45 1.8067444e-38
-1.2679377 -0.39663321 2.45 1.8067444e-38
-1.2488457 -0.38637134 2.45 1.8067444e-38
-1.2310389 -0.38710567 2.4500005 1.8067444e-38
-1.2111393 -0.3920989 2.45 1.8067444e-38
-1.1893139 -0.39266297 2.4500003 1.8067444e-38
-1.1705691 -0.39412743 2.45 1.8067444e-38
-1.1544604 -0.39627528 2.45 1.8067444e-38
-0.92348856 -0.42173365 2.467 1.8067444e-38
-0.91051209 -0.42173368 2.467 1.8067444e-38
-0.89753568 -0.42173365 2.467 1.8067444e-38
-0.80670083 -0.42173368 2.467 1.8067444e-38
-0.78939885 -0.42173368 2.467 1.8067444e-38
-0.77642244 -0.42173365 2.467 1.8067444e-38
-0.72451681 -0.42173368 2.467 1.8067444e-38
-0.7106753 -0.42346382 2.467 1.8067444e-38
-0.69153506 -0.42335567 2.467 1.8067444e-38
-0.66952151 -0.42358744 2.4670002 1.8067444e-38
-0.65242553 -0.42678007 2.467 1.8067444e-38
-0.62873852 -0.42482331 2.4670002 1.8067444e-38
-0.60989171 -0.42822188 2.467 1.8067444e-38
-0.58880508 -0.42443711 2.467 1.8067444e-38
-0.57065356 -0.42296949 2.4670002 1.8067444e-38
-0.525545 -0.42173368 2.467 1.8067444e-38
-0.51083845 -0.42259875 2.467 1.8067444e-38
-0.49015474 -0.42566592 2.4669998 1.8067444e-38
-0.47010028 -0.43195751 2.4669998 1.8067444e-38
-0.4511469 -0.43384495 2.467 1.8067444e-38
-0.42976671 -0.43069357 2.4669998 1.8067444e-38
-0.40983862 -0.42930329 2.4669998 1.8067444e-38
-0.3892926 -0.42822188 2.467 1.8067444e-38
-0.37291759 -0.42605913 2.4670002 1.8067444e-38
-0.35036331 -0.42173365 2.467 1.8067444e-38
-1.3335434 -0.40097138 2.467 1.8067444e-38
-1.1469715 -0.40443179 2.467 1.8067444e-38
-1.1334707 -0.40364531 2.4669998 1.8067444e-38
-1.1090032 -0.405393 2.467 1.8067444e-38
-1.0894014 -0.40999308 2.4669998 1.8067444e-38
-1.071318 -0.41053826 2.4669995 1.8067444e-38
-1.0489272 -0.40745959 2.4669998 1.8067444e-38
-1.0287416 -0.41164085 2.467 1.8067444e-38
-1.0092347 -0.41104716 2.4669995 1.8067444e-38
-0.99036705 -0.40509725 2.4669998 1.8067444e-38
-0.9702037 -0.40991068 2.4669998 1.8067444e-38
-0.95040268 -0.41548574 2.467 1.8067444e-38
-0.92997682 -0.41596636 2.467 1.8067444e-38
-0.90690756 -0.41524547 2.467 1.8067444e-38
-0.88816386 -0.41164082 2.4669995 1.8067444e-38
-0.87158298 -0.41493648 2.4670002 1.8067444e-38
-0.84923458 -0.41596633 2.467 1.8067444e-38
-0.82919329 -0.40962234 2.467 1.8067444e-38
-0.8119874 -0.41452453 2.467 1.8067444e-38
-0.78939891 -0.41740817 2.467 1.8067444e-38
-0.76993424 -0.41740817 2.467 1.8067444e-38
-0.75046962 -0.41438037 2.4669998 1.8067444e-38
-0.73069602 -0.41617236 2.4670002 1.8067444e-38
-0.56014878 -0.41740817 2.467 1.8067444e-38
-0.54933512 -0.41740817 2.467 1.8067444e-38
-0.52987051 -0.4174082 2.467 1.8067444e-38
-0.50968498 -0.41740817 2.467 1.8067444e-38
-0.36261886 -0.41596636 2.467 1.8067444e-38
-0.35252607 -0.41431859 2.4670002 1.8067444e-38
-1.3262383 -0.39097476 2.467 1.8067444e-38
-1.3106184 -0.38712984 2.4669998 1.8067444e-38
-1.2906985 -0.38895109 2.4669995 1.8067444e-38
-1.2712566 -0.38770658 2.4669998 1.8067444e-38
-1.2299793 -0.38589403 2.4670002 1.8067444e-38
-1.2089698 -0.38496709 2.4669998 1.8067444e-38
-1.1887842 -0.38568804 2.467 1.8067444e-38
-1.1729243 -0.39049411 2.467 1.8067444e-38
-1.1549014 -0.3957808 2.467 1.8067444e-38
-1.1246231 -0.3957808 2.467 1.8067444e-38
-1.3096914 -0.37662515 2.4670002 1.8067444e-38
-1.297642 -0.37847891 2.467 1.8067444e-38
-1.2630382 -0.37847891 2.467 1.8067444e-38
-1.2500618 -0.37847891 2.467 1.8067444e-38
-1.2392482 -0.37847891 2.467 1.8067444e-38
-1.2003188 -0.37847891 2.467 1.8067444e-38
-1.191668 -0.37847894 2.467 1.8067444e-38
-0.92151254 -0.42045373 2.4850001 1.8067444e-38
-0.79515857 -0.42045373 2.4850001 1.8067444e-38
-0.72108901 -0.42045373 2.4850001 1.8067444e-38
-0.70976073 -0.42132512 2.4850004 1.8067444e-38
-0.69058979 -0.42045376 2.4850004 1.8067444e-38
-0.66807842 -0.42190608 2.4850004 1.8067444e-38
-0.64774561 -0.42335841 2.4850004 1.8067444e-38
-0.62904668 -0.42208761 2.4850004 1.8067444e-38
-0.61143702 -0.42335838 2.4850004 1.8067444e-38
-0.59037799 -0.42132512 2.4850004 1.8067444e-38
-0.57294989 -0.42045373 2.4850001 1.8067444e-38
-0.5097729 -0.42045373 2.4850001 1.8067444e-38
-0.48944005 -0.42190608 2.4850004 1.8067444e-38
-0.47055957 -0.42698923 2.4850004 1.8067444e-38
-0.4499847 -0.430136 2.4850004 1.8067444e-38
-0.42916781 -0.42263222 2.4850004 1.8067444e-38
-0.41086823 -0.42393932 2.4850004 1.8067444e-38
-0.38850218 -0.42553687 2.4850004 1.8067444e-38
-0.37543106 -0.42190608 2.4850001 1.8067444e-38
-1.1567923 -0.40302557 2.4850001 1.8067444e-38
-1.1219361 -0.40302557 2.4850001 1.8067444e-38
-1.108865 -0.4030256 2.4850004 1.8067444e-38
-1.0892583 -0.40302557 2.4850001 1.8067444e-38
-1.0702742 -0.40427047 2.4850004 1.8067444e-38
-1.0487379 -0.40389696 2.4850004 1.8067444e-38
-1.0304384 -0.40520412 2.4850004 1.8067444e-38
-1.0159149 -0.40447792 2.4850001 1.8067444e-38
-0.98468947 -0.40302557 2.4850001 1.8067444e-38
-0.96682566 -0.40607554 2.4850004 1.8067444e-38
-0.94921082 -0.40862748 2.4850004 1.8067444e-38
-0.93022668 -0.40999684 2.4850004 1.8067444e-38
-0.91183019 -0.40980315 2.4850004 1.8067444e-38
-0.89101338 -0.40427047 2.4850004 1.8067444e-38
-0.8695004 -0.4103781 2.4850004 1.8067444e-38
-0.85125542 -0.41010576 2.4850004 1.8067444e-38
-0.82827204 -0.40607545 2.4850004 1.8067444e-38
-0.81040823 -0.4095611 2.4850006 1.8067444e-38
-0.79049033 -0.41205087 2.4850004 1.8067444e-38
-0.7696389 -0.41080597 2.4850004 1.8067444e-38
-0.74904656 -0.40774572 2.4850006 1.8067444e-38
-0.73005939 -0.40994561 2.4850004 1.8067444e-38
-0.71455348 -0.40956116 2.4850004 1.8067444e-38
-0.69058985 -0.41609669 2.4850004 1.8067444e-38
-0.67098308 -0.41609669 2.4850001 1.8067444e-38
-0.57077134 -0.41609669 2.4850001 1.8067444e-38
-0.55116475 -0.41609669 2.4850004 1.8067444e-38
-0.52875715 -0.41485181 2.4850004 1.8067444e-38
-0.5097729 -0.41464433 2.4850004 1.8067444e-38
-0.49670184 -0.41391817 2.4850001 1.8067444e-38
-0.36671695 -0.413192 2.4850001 1.8067444e-38
-1.3441448 -0.392133 2.4850001 1.8067444e-38
-1.3363022 -0.38472605 2.4850004 1.8067444e-38
-1.3005744 -0.38124043 2.4850001 1.8067444e-38
-1.2896819 -0.38124043 2.4850001 1.8067444e-38
-1.2787893 -0.38124043 2.4850001 1.8067444e-38
-1.243933 -0.38124043 2.4850001 1.8067444e-38
-1.2323143 -0.38269275 2.4850004 1.8067444e-38
-1.2156123 -0.38124043 2.4850001 1.8067444e-38
-1.1862023 -0.38232964 2.4850001 1.8067444e-38
-1.1722839 -0.38947037 2.4850004 1.8067444e-38
-1.150257 -0.39518294 2.4850004 1.8067444e-38
-1.1306502 -0.39479563 2.4850004 1.8067444e-38
-1.1094096 -0.39703467 2.4850004 1.8067444e-38
-1.0905654 -0.39779717 2.4850004 1.8067444e-38
-1.0696516 -0.39866856 2.4850004 1.8067444e-38
-1.050045 -0.39866856 2.4850001 1.8067444e-38
-1.0277152 -0.39649004 2.4850004 1.8067444e-38
-1.010396 -0.39256871 2.4850004 1.8067444e-38
-0.99427491 -0.39518294 2.4850004 1.8067444e-38
-0.97379702 -0.39866859 2.4850001 1.8067444e-38
-0.95419025 -0.39866856 2.4850001 1.8067444e-38
-0.93676221 -0.39866856 2.4850001 1.8067444e-38
-0.89101332 -0.39866859 2.4850001 1.8067444e-38
-1.3275881 -0.37426922 2.4850004 1.8067444e-38
-1.3078362 -0.37470484 2.4850004 1.8067444e-38
-1.290989 -0.37601197 2.4850004 1.8067444e-38
-1.2700752 -0.37688339 2.4850004 1.8067444e-38
-1.2526472 -0.37688339 2.4850001 1.8067444e-38
-1.2025411 -0.37688339 2.4850001 1.8067444e-38
-1.1938272 -0.37688339 2.4850001 1.8067444e-38
-0.66267759 -0.42349926 2.503 1.8067444e-38
-0.65609467 -0.42349926 2.503 1.8067444e-38
-0.60782021 -0.42349929 2.503 1.8067444e-38
-0.48274526 -0.42349926 2.503 1.8067444e-38
-0.46826291 -0.42437696 2.503 1.8067444e-38
-0.45296553 -0.42538011 2.503 1.8067444e-38
-0.40682259 -0.42437702 2.503 1.8067444e-38
-0.39387625 -0.4245964 2.503 1.8067444e-38
-1.3626583 -0.40155628 2.503 1.8067444e-38
-1.3582696 -0.40155628 2.503 1.8067444e-38
-0.96987915 -0.40155628 2.503 1.8067444e-38
-0.95232475 -0.40155628 2.503 1.8067444e-38
-0.93038177 -0.40375057 2.503 1.8067444e-38
-0.91429031 -0.40301916 2.5030003 1.8067444e-38
-0.88649583 -0.40155628 2.503 1.8067444e-38
-0.87016052 -0.40350676 2.503 1.8067444e-38
-0.85016805 -0.40350676 2.503 1.8067444e-38
-0.82944411 -0.40155628 2.503 1.8067444e-38
-0.80794001 -0.40418944 2.503 1.8067444e-38
-0.78994679 -0.40375057 2.503 1.8067444e-38
-0.77184379 -0.403202 2.503 1.8067444e-38
-0.75044948 -0.40155628 2.503 1.8067444e-38
-0.73007387 -0.40281019 2.503 1.8067444e-38
-0.70985496 -0.41106492 2.5030003 1.8067444e-38
-0.69120347 -0.41121122 2.503 1.8067444e-38
-0.6692605 -0.41516095 2.503 1.8067444e-38
-0.64951181 -0.41472206 2.5030003 1.8067444e-38
-0.63039011 -0.41503558 2.503 1.8067444e-38
-0.60941607 -0.41512105 2.5030003 1.8067444e-38
-0.59000766 -0.41291499 2.5029998 1.8067444e-38
-0.57139486 -0.41121116 2.503 1.8067444e-38
-0.55076849 -0.41252777 2.503 1.8067444e-38
-0.52772832 -0.40996778 2.5030003 1.8067444e-38
-0.50883305 -0.40887061 2.503 1.8067444e-38
-0.49108359 -0.41428319 2.503 1.8067444e-38
-0.44324791 -0.41911066 2.503 1.8067444e-38
-0.43008214 -0.41911066 2.503 1.8067444e-38
-0.41472208 -0.41911066 2.503 1.8067444e-38
-0.38400191 -0.41911066 2.503 1.8067444e-38
-0.37083611 -0.41362488 2.503 1.8067444e-38
-1.3626583 -0.39716768 2.503 1.8067444e-38
-1.3553438 -0.38912195 2.5030003 1.8067444e-38
-1.235389 -0.38400191 2.503 1.8067444e-38
-1.1827259 -0.38400191 2.503 1.8067444e-38
-1.1712058 -0.38948765 2.503 1.8067444e-38
-1.1488711 -0.39027137 2.503 1.8067444e-38
-1.1300628 -0.3895874 2.5030003 1.8067444e-38
-1.1117771 -0.39424199 2.5030003 1.8067444e-38
-1.0905654 -0.3949734 2.503 1.8067444e-38
-1.0700853 -0.39424196 2.503 1.8067444e-38
-1.0521653 -0.39387628 2.5030003 1.8067444e-38
-1.0308806 -0.38882941 2.503 1.8067444e-38
-1.0080599 -0.38663507 2.503 1.8067444e-38
-0.99109066 -0.3949734 2.5030003 1.8067444e-38
-0.96987915 -0.39716768 2.503 1.8067444e-38
-0.94848472 -0.39552197 2.503 1.8067444e-38
-0.93069524 -0.39528689 2.503 1.8067444e-38
-0.90983516 -0.39437494 2.5030003 1.8067444e-38
-0.89088446 -0.3949734 2.503 1.8067444e-38
-0.87259865 -0.39643627 2.5030003 1.8067444e-38
-0.85577571 -0.39716768 2.503 1.8067444e-38
-0.83163851 -0.39716768 2.503 1.8067444e-38
-0.8075012 -0.39716768 2.503 1.8067444e-38
-0.78994679 -0.39387625 2.503 1.8067444e-38
-0.77678102 -0.39716768 2.503 1.8067444e-38
-0.7489866 -0.39570484 2.5030003 1.8067444e-38
-0.73070079 -0.3949734 2.503 1.8067444e-38
-0.71753502 -0.3949734 2.503 1.8067444e-38
-1.3472981 -0.37522477 2.503 1.8067444e-38
-1.3310604 -0.36995843 2.503 1.8067444e-38
-1.3105437 -0.37248188 2.503 1.8067444e-38
-1.2902464 -0.37303048 2.503 1.8067444e-38
-1.2704978 -0.37303048 2.503 1.8067444e-38
-1.2507491 -0.37851617 2.503 1.8067444e-38
-1.2310004 -0.37961331 2.503 1.8067444e-38
-1.2090575 -0.37610245 2.503 1.8067444e-38
-1.191503 -0.37961334 2.503 1.8067444e-38
-1.0218109 -0.37815046 2.503 1.8067444e-38
-1.0144966 -0.37815046 2.503 1.8067444e-38
-0.47093305 -0.42229208 2.5220001 1.8067444e-38
-0.45545638 -0.42229208 2.5220001 1.8067444e-38
-0.40460443 -0.42229208 2.5220001 1.8067444e-38
-0.39354968 -0.42229208 2.5220001 1.8067444e-38
-0.85121703 -0.40018257 2.5220001 1.8067444e-38
-0.82689655 -0.40018255 2.5220001 1.8067444e-38
-0.77162266 -0.40018257 2.5220001 1.8067444e-38
-0.70971602 -0.40239349 2.5220001 1.8067444e-38
-0.68981743 -0.40460443 2.5220001 1.8067444e-38
-0.66893619 -0.41000906 2.5220001 1.8067444e-38
-0.65002024 -0.40681541 2.5220001 1.8067444e-38
-0.62901622 -0.4079209 2.5219998 1.8067444e-38
-0.61022311 -0.40460449 2.5219998 1.8067444e-38
-0.59112853 -0.40299651 2.5219998 1.8067444e-38
-0.57042593 -0.40460443 2.5220001 1.8067444e-38
-0.5498957 -0.40492028 2.5220001 1.8067444e-38
-0.5306288 -0.40239349 2.5220001 1.8067444e-38
-0.51073021 -0.40239349 2.5220001 1.8067444e-38
-0.491716 -0.40902635 2.5220001 1.8067444e-38
-0.46945912 -0.41713318 2.5220003 1.8067444e-38
-0.45103446 -0.41565925 2.5220001 1.8067444e-38
-0.43279412 -0.41621196 2.5220001 1.8067444e-38
-0.40957907 -0.41621196 2.5220001 1.8067444e-38
-0.38839081 -0.41492227 2.5220001 1.8067444e-38
-0.37365112 -0.40902635 2.5220001 1.8067444e-38
-1.371528 -0.38765383 2.5220003 1.8067444e-38
-1.1861764 -0.38360041 2.5220001 1.8067444e-38
-1.1695943 -0.38559029 2.5220001 1.8067444e-38
-1.1511697 -0.38396892 2.5220003 1.8067444e-38
-1.1286918 -0.38581139 2.5219998 1.8067444e-38
-1.1081789 -0.38789952 2.5220001 1.8067444e-38
-1.09 -0.38912782 2.5220001 1.8067444e-38
-1.071049 -0.38628516 2.5220003 1.8067444e-38
-1.0505713 -0.38654837 2.5219998 1.8067444e-38
-1.0369371 -0.38249493 2.5220001 1.8067444e-38
-1.0074577 -0.38765383 2.5220003 1.8067444e-38
-0.99050707 -0.39354968 2.5220001 1.8067444e-38
-0.97060853 -0.39354974 2.5220001 1.8067444e-38
-0.95165747 -0.38944367 2.5220003 1.8067444e-38
-0.92982864 -0.39035609 2.5220001 1.8067444e-38
-0.91122872 -0.38881195 2.5220003 1.8067444e-38
-0.89150554 -0.39035612 2.5220001 1.8067444e-38
-0.86890459 -0.39354965 2.5220001 1.8067444e-38
-0.84900606 -0.39576066 2.5220001 1.8067444e-38
-0.82910752 -0.39576066 2.5220001 1.8067444e-38
-0.80832446 -0.39222312 2.5220001 1.8067444e-38
-0.78867871 -0.39197049 2.5220003 1.8067444e-38
-0.76720083 -0.39428669 2.5220001 1.8067444e-38
-0.74951321 -0.3900122 2.5220001 1.8067444e-38
-0.73056215 -0.38944367 2.5220003 1.8067444e-38
-0.70971602 -0.39576066 2.5220001 1.8067444e-38
-0.69423938 -0.39576066 2.5220001 1.8067444e-38
-0.59474647 -0.39576066 2.5220001 1.8067444e-38
-0.52399594 -0.39576066 2.5220001 1.8067444e-38
-0.51073021 -0.39576066 2.5220001 1.8067444e-38
-1.3691328 -0.3730984 2.5220001 1.8067444e-38
-1.3518751 -0.36824661 2.5220001 1.8067444e-38
-1.3309939 -0.3692292 2.5220001 1.8067444e-38
-1.3110952 -0.3692292 2.5220001 1.8067444e-38
-1.2878804 -0.36591277 2.5219998 1.8067444e-38
-1.2688417 -0.36972058 2.5220001 1.8067444e-38
-1.2491887 -0.37365118 2.5220001 1.8067444e-38
-1.22912 -0.37195045 2.5220001 1.8067444e-38
-1.2086112 -0.37026966 2.5219998 1.8067444e-38
-1.189292 -0.37405309 2.5219998 1.8067444e-38
-1.1784381 -0.37586206 2.5220001 1.8067444e-38
-1.04357 -0.37807301 2.5220001 1.8067444e-38
-1.0303042 -0.37586206 2.5220001 1.8067444e-38
-1.0170386 -0.37807301 2.5220001 1.8067444e-38
-0.68721765 -0.40431121 2.5410001 1.8067444e-38
-0.67218125 -0.40486813 2.5410001 1.8067444e-38
-0.65046215 -0.40319741 2.5410001 1.8067444e-38
-0.6326412 -0.40319741 2.5410001 1.8067444e-38
-0.56581295 -0.40319741 2.5410001 1.8067444e-38
-0.4874011 -0.40854368 2.5410001 1.8067444e-38
-0.47091678 -0.41032583 2.5410001 1.8067444e-38
-0.45071974 -0.40913773 2.5410001 1.8067444e-38
-0.4294337 -0.41210788 2.5410001 1.8067444e-38
-0.40936619 -0.40936619 2.5410001 1.8067444e-38
-0.39226186 -0.40765262 2.5410004 1.8067444e-38
-0.37498102 -0.40616757 2.5410001 1.8067444e-38
-1.1828609 -0.38314891 2.5410001 1.8067444e-38
-1.1694952 -0.38092133 2.5410001 1.8067444e-38
-1.1494467 -0.3809213 2.5410001 1.8067444e-38
-1.1271706 -0.38314891 2.5410001 1.8067444e-38
-1.1078649 -0.38240641 2.5410004 1.8067444e-38
-1.0902914 -0.3829014 2.5410001 1.8067444e-38
-1.0692527 -0.38240641 2.5410004 1.8067444e-38
-1.0581148 -0.3809213 2.5410001 1.8067444e-38
-1.0072509 -0.38463399 2.5410004 1.8067444e-38
-0.98905885 -0.38537654 2.5410004 1.8067444e-38
-0.97003847 -0.38469112 2.5410001 1.8067444e-38
-0.94896185 -0.38649032 2.5410001 1.8067444e-38
-0.9289133 -0.38537651 2.5410001 1.8067444e-38
-0.90886486 -0.38537651 2.5410001 1.8067444e-38
-0.89008933 -0.38728589 2.5410001 1.8067444e-38
-0.87018543 -0.38821164 2.5410004 1.8067444e-38
-0.85168964 -0.3913168 2.5410001 1.8067444e-38
-0.83089858 -0.3936505 2.5410001 1.8067444e-38
-0.81218666 -0.38626757 2.5410001 1.8067444e-38
-0.78889221 -0.39046821 2.5410001 1.8067444e-38
-0.77164412 -0.39161384 2.5410001 1.8067444e-38
-0.74903387 -0.38370579 2.5410001 1.8067444e-38
-0.73040855 -0.38587156 2.5410001 1.8067444e-38
-0.71227825 -0.39261627 2.5410001 1.8067444e-38
-0.69100469 -0.39696011 2.5410001 1.8067444e-38
-0.64377928 -0.3987422 2.5410001 1.8067444e-38
-0.62892854 -0.39799964 2.5410004 1.8067444e-38
-0.6113199 -0.39619634 2.5410001 1.8067444e-38
-0.59031671 -0.39696011 2.5410001 1.8067444e-38
-0.57472336 -0.3987422 2.5410001 1.8067444e-38
-0.55021971 -0.3987422 2.5410001 1.8067444e-38
-0.53165627 -0.39577207 2.5410004 1.8067444e-38
-0.50863761 -0.39502952 2.5410004 1.8067444e-38
-0.49675703 -0.39651459 2.5410001 1.8067444e-38
-0.40319741 -0.39651459 2.5410001 1.8067444e-38
-0.39295039 -0.39295039 2.5410001 1.8067444e-38
-1.3833458 -0.36532804 2.5410001 1.8067444e-38
-1.3716508 -0.36477113 2.5410001 1.8067444e-38
-1.3484466 -0.36458552 2.5410004 1.8067444e-38
-1.3298831 -0.36532804 2.5410001 1.8067444e-38
-1.3113198 -0.36458552 2.5410004 1.8067444e-38
-1.286816 -0.36458552 2.5410001 1.8067444e-38
-1.2697376 -0.36532807 2.5410001 1.8067444e-38
-1.2496892 -0.36532804 2.5410001 1.8067444e-38
-1.2318684 -0.36310047 2.5410001 1.8067444e-38
-1.2070464 -0.3656463 2.5410001 1.8067444e-38
-1.1892257 -0.36946502 2.5410001 1.8067444e-38
-1.1694952 -0.3764661 2.5410001 1.8067444e-38
-1.149765 -0.37455672 2.5410001 1.8067444e-38
-1.1310184 -0.37322593 2.5410004 1.8067444e-38
-1.1108348 -0.37498102 2.5410004 1.8067444e-38
-1.0899378 -0.37519318 2.5410001 1.8067444e-38
-1.0692527 -0.3764661 2.5410001 1.8067444e-38
-1.0492042 -0.37423846 2.5410001 1.8067444e-38
-1.0284133 -0.37151584 2.5410001 1.8067444e-38
-1.0116532 -0.37455672 2.5410001 1.8067444e-38
-0.99351406 -0.3764661 2.5410001 1.8067444e-38
-1.3628517 -0.35508105 2.5410001 1.8067444e-38
-1.3499316 -0.35508099 2.5410001 1.8067444e-38
-1.3358235 -0.35567507 2.5410004 1.8067444e-38
-1.3098346 -0.3586452 2.5410001 1.8067444e-38
-1.2914569 -0.35697448 2.5410001 1.8067444e-38
-1.2630548 -0.3586452 2.5410001 1.8067444e-38
-1.2496892 -0.3586452 2.5410001 1.8067444e-38
-1.2340959 -0.3586452 2.5410001 1.8067444e-38
-1.2006818 -0.3586452 2.5410001 1.8067444e-38
-1.1962266 -0.3586452 2.5410001 1.8067444e-38
-0.68252796 -0.40095359 2.5695002 1.8067444e-38
-0.66879147 -0.40172374 2.5600002 1.8067444e-38
-0.65532589 -0.40172374 2.5600002 1.8067444e-38
-0.57004368 -0.40172374 2.5600002 1.8067444e-38
-0.48744595 -0.40121031 2.5663338 1.8067444e-38
-0.47058067 -0.40233248 2.5663335 1.8067444e-38
-0.44961792 -0.40352097 2.5735719 1.8067444e-38
-0.43097785 -0.40491569 2.5681434 1.8067444e-38
-0.41631147 -0.40284586 2.5600002 1.8067444e-38
-0.38676196 -0.4047161 2.5600002 1.8067444e-38
-0.94932479 -0.3837696 2.5600002 1.8067444e-38
-0.92912644 -0.3837696 2.5600002 1.8067444e-38
-0.91117221 -0.3837696 2.5600002 1.8067444e-38
-0.89097387 -0.3837696 2.5600002 1.8067444e-38
-0.86840791 -0.38321179 2.5663338 1.8067444e-38
-0.85002691 -0.38674831 2.5614617 1.8067444e-38
-0.83206195 -0.38657489 2.5600002 1.8067444e-38
-0.80781883 -0.38417178 2.5627146 1.8067444e-38
-0.790429 -0.3847079 2.5663333 1.8067444e-38
-0.77127969 -0.38451773 2.5600004 1.8067444e-38
-0.72614574 -0.38444677 2.5676 1.8067444e-38
-0.70955914 -0.3868686 2.5695 1.8067444e-38
-0.69064593 -0.3909584 2.5738182 1.8067444e-38
-0.66823548 -0.39232218 2.573154 1.8067444e-38
-0.65065902 -0.39038137 2.5709996 1.8067444e-38
-0.63208568 -0.39042091 2.5714004 1.8067444e-38
-0.61044639 -0.39016813 2.5726671 1.8067444e-38
-0.58926356 -0.3918561 2.5704505 1.8067444e-38
-0.57048184 -0.39352736 2.5735719 1.8067444e-38
-0.54956198 -0.39169902 2.572294 1.8067444e-38
-0.53003967 -0.38819164 2.5681431 1.8067444e-38
-0.51042068 -0.38980421 2.5681431 1.8067444e-38
-0.49228695 -0.39633599 2.5708575 1.8067444e-38
-0.47479391 -0.39566159 2.5790002 1.8067444e-38
-0.44630629 -0.39475724 2.5790002 1.8067444e-38
-0.42806816 -0.3903861 2.5790005 1.8067444e-38
-0.41037619 -0.39096153 2.5687695 1.8067444e-38
-0.38922977 -0.39671063 2.5663335 1.8067444e-38
-1.4040334 -0.36400867 2.5790002 1.8067444e-38
-1.3881493 -0.36222085 2.5663335 1.8067444e-38
-1.3330944 -0.36132693 2.5600002 1.8067444e-38
-1.2837205 -0.36132693 2.5600002 1.8067444e-38
-1.2769877 -0.36132693 2.5600002 1.8067444e-38
-1.230307 -0.36222464 2.5600002 1.8067444e-38
-1.207057 -0.36402157 2.565429 1.8067444e-38
-1.1897498 -0.3688142 2.5679169 1.8067444e-38
-1.1710169 -0.37083501 2.5663333 1.8067444e-38
-1.1521192 -0.36975664 2.5718751 1.8067444e-38
-1.1303538 -0.36851308 2.5710835 1.8067444e-38
-1.1112157 -0.37018281 2.5681431 1.8067444e-38
-1.090434 -0.37111852 2.5657003 1.8067444e-38
-1.0708845 -0.37160313 2.5621111 1.8067444e-38
-1.049438 -0.36770597 2.5733001 1.8067444e-38
-1.0306257 -0.36928585 2.5708575 1.8067444e-38
-1.0089943 -0.37260428 2.5621111 1.8067444e-38
-0.98859048 -0.37461126 2.5654287 1.8067444e-38
-0.96922481 -0.37677228 2.565182 1.8067444e-38
-0.94891298 -0.37715492 2.5710835 1.8067444e-38
-0.92920184 -0.37701267 2.5726671 1.8067444e-38
-0.91003168 -0.37842762 2.5695002 1.8067444e-38
-0.89089829 -0.37852246 2.5684445 1.8067444e-38
-0.86933869 -0.37737274 2.5720913 1.8067444e-38
-0.84918493 -0.37344882 2.574616 1.8067444e-38
-0.83099383 -0.37457451 2.5688672 1.8067444e-38
-0.81039834 -0.37689304 2.5673077 1.8067444e-38
-0.79075789 -0.37531328 2.5790002 1.8067444e-38
-0.76812655 -0.37391412 2.5695 1.8067444e-38
-0.75052333 -0.37427306 2.568867 1.8067444e-38
-0.73206842 -0.37730551 2.5695002 1.8067444e-38
-0.70992994 -0.37757421 2.5790002 1.8067444e-38
-0.69862533 -0.37757421 2.5790002 1.8067444e-38
